ply
format ascii 1.0
element vertex 1660
property float x
property float y
property float z
end_header
20.800001 1.600000 20.400000
20.800001 1.600000 20.800001
20.800001 1.600000 21.200001
20.800001 1.600000 21.600000
20.800001 1.600000 22.000000
20.800001 1.600000 22.400000
20.800001 1.600000 22.800001
20.800001 1.600000 23.200001
20.800001 1.600000 23.600000
20.800001 1.600000 24.000000
20.800001 1.600000 24.400000
20.800001 1.600000 24.800001
20.800001 1.600000 25.200001
20.800001 1.600000 25.600000
20.800001 1.600000 26.000000
20.800001 1.600000 26.400000
20.800001 1.600000 26.800001
20.800001 1.600000 27.200001
20.800001 1.600000 27.600000
20.800001 1.600000 28.000000
20.800001 1.600000 28.400000
20.800001 1.600000 28.800001
20.800001 1.600000 29.200001
20.800001 1.600000 29.600000
20.800001 1.600000 30.000000
20.800001 1.600000 30.400000
20.800001 1.600000 30.800001
20.800001 1.600000 31.200001
20.800001 1.600000 31.600000
20.800001 1.600000 32.000000
20.800001 1.600000 32.400002
20.800001 1.600000 32.799999
20.800001 1.600000 33.200001
20.800001 1.600000 33.600002
20.800001 1.600000 34.000000
20.800001 1.600000 34.400002
20.800001 1.600000 34.799999
20.800001 1.600000 35.200001
20.800001 1.600000 35.600002
20.800001 1.600000 36.000000
20.800001 1.600000 36.400002
20.800001 1.600000 36.799999
20.800001 1.600000 37.200001
20.800001 1.600000 37.600002
20.800001 1.600000 38.000000
20.800001 1.600000 38.400002
20.800001 1.600000 38.799999
20.800001 1.600000 39.200001
20.800001 1.600000 39.600002
20.800001 1.600000 40.000000
20.800001 1.600000 40.400002
20.800001 1.600000 40.799999
20.800001 1.600000 41.200001
20.800001 1.600000 41.600002
20.800001 1.600000 42.000000
20.800001 1.600000 42.400002
20.800001 1.600000 42.799999
20.800001 1.600000 43.200001
20.800001 1.600000 43.600002
20.800001 1.600000 44.000000
20.800001 1.600000 44.400002
20.800001 1.600000 44.799999
20.800001 1.600000 45.200001
20.800001 1.600000 45.600002
20.800001 1.600000 46.000000
20.800001 1.600000 46.400002
20.800001 1.600000 46.799999
20.800001 1.600000 47.200001
20.800001 1.600000 47.600002
20.800001 1.600000 48.000000
20.800001 1.600000 48.400002
20.800001 1.600000 48.799999
20.800001 1.600000 49.200001
20.800001 1.600000 49.600002
20.800001 1.600000 50.000000
20.800001 1.600000 50.400002
20.800001 1.600000 50.799999
20.800001 2.400000 1.600000
20.800001 2.800000 1.600000
20.800001 3.200000 1.600000
20.800001 3.600000 1.600000
20.800001 4.000000 1.600000
20.800001 4.400000 1.600000
20.800001 4.800000 1.600000
20.800001 5.200000 1.600000
20.800001 5.600000 1.600000
20.800001 6.000000 1.600000
20.800001 6.400000 1.600000
20.800001 6.800000 1.600000
20.800001 7.200000 1.600000
20.800001 7.600000 1.600000
20.800001 8.000000 1.600000
20.800001 8.400001 1.600000
20.800001 8.800000 1.600000
20.800001 9.200000 1.600000
20.800001 9.600000 1.600000
20.800001 10.000000 1.600000
20.800001 10.400001 1.600000
20.800001 10.800000 1.600000
20.800001 11.200000 1.600000
20.800001 11.600000 1.600000
20.800001 12.000000 1.600000
20.800001 12.400001 1.600000
20.800001 12.800000 1.600000
20.800001 13.200000 1.600000
20.800001 13.600000 1.600000
20.800001 14.000000 1.600000
20.800001 14.400001 1.600000
20.800001 14.800000 1.600000
20.800001 15.200000 1.600000
20.800001 15.600000 1.600000
20.800001 16.000000 1.600000
20.800001 16.400000 1.600000
20.800001 16.800001 1.600000
20.800001 17.200001 1.600000
20.800001 17.600000 1.600000
20.800001 18.000000 1.600000
20.800001 18.400000 1.600000
20.800001 18.800001 1.600000
20.800001 19.200001 1.600000
20.800001 19.600000 1.600000
20.800001 20.000000 1.600000
20.800001 20.400000 1.600000
20.800001 20.800001 1.600000
20.800001 21.200001 1.600000
20.800001 21.600000 1.600000
20.800001 22.000000 1.600000
20.800001 22.400000 1.600000
20.800001 22.800001 1.600000
20.800001 23.200001 1.600000
20.800001 23.600000 1.600000
20.800001 24.000000 1.600000
20.800001 24.400000 1.600000
20.800001 24.800001 1.600000
20.800001 25.200001 1.600000
20.800001 25.600000 1.600000
20.800001 26.000000 1.600000
20.800001 26.400000 1.600000
20.800001 26.800001 1.600000
20.800001 27.200001 1.600000
20.800001 27.600000 1.600000
20.800001 28.000000 1.600000
20.800001 28.400000 1.600000
20.800001 28.800001 1.600000
20.800001 29.200001 1.600000
20.800001 29.600000 1.600000
20.800001 30.000000 1.600000
20.800001 30.400000 1.600000
20.800001 30.800001 1.600000
20.800001 31.200001 1.600000
20.800001 31.600000 1.600000
20.800001 32.000000 1.600000
20.800001 32.400002 1.600000
20.800001 32.799999 1.600000
20.800001 33.200001 1.600000
20.800001 33.600002 1.600000
20.800001 34.000000 1.600000
20.800001 34.400002 1.600000
20.800001 34.799999 1.600000
20.800001 35.200001 1.600000
20.800001 35.600002 1.600000
20.800001 36.000000 1.600000
20.800001 36.400002 1.600000
20.800001 36.799999 1.600000
20.800001 37.200001 1.600000
20.800001 37.600002 1.600000
20.800001 38.000000 1.600000
20.800001 38.400002 1.600000
20.800001 38.799999 1.600000
20.800001 39.200001 1.600000
20.800001 39.600002 1.600000
20.800001 40.000000 1.600000
20.800001 40.400002 1.600000
20.800001 40.799999 1.600000
20.800001 41.200001 1.600000
20.800001 41.600002 1.600000
20.800001 42.000000 1.600000
20.800001 42.400002 1.600000
20.800001 42.799999 1.600000
20.800001 43.200001 1.600000
20.800001 43.600002 1.600000
20.800001 44.000000 1.600000
20.800001 44.400002 1.600000
20.800001 44.799999 1.600000
20.800001 45.200001 1.600000
20.800001 45.600002 1.600000
20.800001 46.000000 1.600000
20.800001 46.400002 1.600000
20.800001 46.799999 1.600000
20.800001 47.200001 1.600000
20.800001 47.600002 1.600000
20.800001 48.000000 1.600000
20.800001 48.400002 1.600000
20.800001 48.799999 1.600000
20.800001 49.200001 1.600000
20.800001 49.600002 1.600000
20.800001 50.000000 1.600000
20.800001 50.400002 1.600000
20.800001 50.799999 1.600000
21.200001 2.000000 1.600000
21.200001 1.600000 2.000000
21.200001 1.600000 2.400000
21.200001 1.600000 2.800000
21.200001 1.600000 3.200000
21.200001 1.600000 3.600000
21.200001 1.600000 4.000000
21.200001 1.600000 4.400000
21.200001 1.600000 4.800000
21.200001 1.600000 5.200000
21.200001 1.600000 5.600000
21.200001 1.600000 6.000000
21.200001 1.600000 6.400000
21.200001 1.600000 6.800000
21.200001 1.600000 7.200000
21.200001 1.600000 7.600000
21.200001 1.600000 8.000000
21.200001 1.600000 8.400001
21.200001 1.600000 8.800000
21.200001 1.600000 9.200000
21.200001 1.600000 9.600000
21.200001 1.600000 10.000000
21.200001 1.600000 10.400001
21.200001 1.600000 10.800000
21.200001 1.600000 11.200000
21.200001 1.600000 11.600000
21.200001 1.600000 12.000000
21.200001 1.600000 12.400001
21.200001 1.600000 12.800000
21.200001 1.600000 13.200000
21.200001 1.600000 13.600000
21.200001 1.600000 14.000000
21.200001 1.600000 14.400001
21.200001 1.600000 14.800000
21.200001 1.600000 15.200000
21.200001 1.600000 15.600000
21.200001 1.600000 16.000000
21.200001 1.600000 16.400000
21.200001 1.600000 16.800001
21.200001 1.600000 17.200001
21.200001 1.600000 17.600000
21.200001 1.600000 18.000000
21.200001 1.600000 18.400000
21.200001 1.600000 18.800001
21.200001 1.600000 19.200001
21.200001 1.600000 19.600000
21.200001 1.600000 20.000000
21.200001 1.600000 20.400000
21.200001 1.600000 20.800001
21.200001 1.600000 21.200001
21.200001 1.600000 21.600000
21.200001 1.600000 22.000000
21.200001 1.600000 22.400000
21.200001 1.600000 22.800001
21.200001 1.600000 23.200001
21.200001 1.600000 23.600000
21.200001 1.600000 24.000000
21.200001 1.600000 24.400000
21.200001 1.600000 24.800001
21.200001 1.600000 25.200001
21.200001 1.600000 25.600000
21.200001 1.600000 26.000000
21.200001 1.600000 26.400000
21.200001 1.600000 26.800001
21.200001 1.600000 27.200001
21.200001 1.600000 27.600000
21.200001 1.600000 28.000000
21.200001 1.600000 28.400000
21.200001 1.600000 28.800001
21.200001 1.600000 29.200001
21.200001 1.600000 29.600000
21.200001 1.600000 30.000000
21.200001 1.600000 30.400000
21.200001 1.600000 30.800001
21.200001 1.600000 31.200001
21.200001 1.600000 31.600000
21.200001 1.600000 32.000000
21.200001 1.600000 32.400002
21.200001 1.600000 32.799999
21.200001 1.600000 33.200001
21.200001 1.600000 33.600002
21.200001 1.600000 34.000000
21.200001 1.600000 34.400002
21.200001 1.600000 34.799999
21.200001 1.600000 35.200001
21.200001 1.600000 35.600002
21.200001 1.600000 36.000000
21.200001 1.600000 36.400002
21.200001 1.600000 36.799999
21.200001 1.600000 37.200001
21.200001 1.600000 37.600002
21.200001 1.600000 38.000000
21.200001 1.600000 38.400002
21.200001 1.600000 38.799999
21.200001 1.600000 39.200001
21.200001 1.600000 39.600002
21.200001 1.600000 40.000000
21.200001 1.600000 40.400002
21.200001 1.600000 40.799999
21.200001 1.600000 41.200001
21.200001 1.600000 41.600002
21.200001 1.600000 42.000000
21.200001 1.600000 42.400002
21.200001 1.600000 42.799999
21.200001 1.600000 43.200001
21.200001 1.600000 43.600002
21.200001 1.600000 44.000000
21.200001 1.600000 44.400002
21.200001 1.600000 44.799999
21.200001 1.600000 45.200001
21.200001 1.600000 45.600002
21.200001 1.600000 46.000000
21.200001 1.600000 46.400002
21.200001 1.600000 46.799999
21.200001 1.600000 47.200001
21.200001 1.600000 47.600002
21.200001 1.600000 48.000000
21.200001 1.600000 48.400002
21.200001 1.600000 48.799999
21.200001 1.600000 49.200001
21.200001 1.600000 49.600002
21.200001 1.600000 50.000000
21.200001 1.600000 50.400002
21.200001 1.600000 50.799999
21.200001 2.400000 1.600000
21.200001 2.800000 1.600000
21.200001 3.200000 1.600000
21.200001 3.600000 1.600000
21.200001 4.000000 1.600000
21.200001 4.400000 1.600000
21.200001 4.800000 1.600000
21.200001 5.200000 1.600000
21.200001 5.600000 1.600000
21.200001 6.000000 1.600000
21.200001 6.400000 1.600000
21.200001 6.800000 1.600000
21.200001 7.200000 1.600000
21.200001 7.600000 1.600000
21.200001 8.000000 1.600000
21.200001 8.400001 1.600000
21.200001 8.800000 1.600000
21.200001 9.200000 1.600000
21.200001 9.600000 1.600000
21.200001 10.000000 1.600000
21.200001 10.400001 1.600000
21.200001 10.800000 1.600000
21.200001 11.200000 1.600000
21.200001 11.600000 1.600000
21.200001 12.000000 1.600000
21.200001 12.400001 1.600000
21.200001 12.800000 1.600000
21.200001 13.200000 1.600000
21.200001 13.600000 1.600000
21.200001 14.000000 1.600000
21.200001 14.400001 1.600000
21.200001 14.800000 1.600000
21.200001 15.200000 1.600000
21.200001 15.600000 1.600000
21.200001 16.000000 1.600000
21.200001 16.400000 1.600000
21.200001 16.800001 1.600000
21.200001 17.200001 1.600000
21.200001 17.600000 1.600000
21.200001 18.000000 1.600000
21.200001 18.400000 1.600000
21.200001 18.800001 1.600000
21.200001 19.200001 1.600000
21.200001 19.600000 1.600000
21.200001 20.000000 1.600000
21.200001 20.400000 1.600000
21.200001 20.800001 1.600000
21.200001 21.200001 1.600000
21.200001 21.600000 1.600000
21.200001 22.000000 1.600000
21.200001 22.400000 1.600000
21.200001 22.800001 1.600000
21.200001 23.200001 1.600000
21.200001 23.600000 1.600000
21.200001 24.000000 1.600000
21.200001 24.400000 1.600000
21.200001 24.800001 1.600000
21.200001 25.200001 1.600000
21.200001 25.600000 1.600000
21.200001 26.000000 1.600000
21.200001 26.400000 1.600000
21.200001 26.800001 1.600000
21.200001 27.200001 1.600000
21.200001 27.600000 1.600000
21.200001 28.000000 1.600000
21.200001 28.400000 1.600000
21.200001 28.800001 1.600000
21.200001 29.200001 1.600000
21.200001 29.600000 1.600000
21.200001 30.000000 1.600000
21.200001 30.400000 1.600000
21.200001 30.800001 1.600000
21.200001 31.200001 1.600000
21.200001 31.600000 1.600000
21.200001 32.000000 1.600000
21.200001 32.400002 1.600000
21.200001 32.799999 1.600000
21.200001 33.200001 1.600000
21.200001 33.600002 1.600000
21.200001 34.000000 1.600000
21.200001 34.400002 1.600000
21.200001 34.799999 1.600000
21.200001 35.200001 1.600000
21.200001 35.600002 1.600000
21.200001 36.000000 1.600000
21.200001 36.400002 1.600000
21.200001 36.799999 1.600000
21.200001 37.200001 1.600000
21.200001 37.600002 1.600000
21.200001 38.000000 1.600000
21.200001 38.400002 1.600000
21.200001 38.799999 1.600000
21.200001 39.200001 1.600000
21.200001 39.600002 1.600000
21.200001 40.000000 1.600000
21.200001 40.400002 1.600000
21.200001 40.799999 1.600000
21.200001 41.200001 1.600000
21.200001 41.600002 1.600000
21.200001 42.000000 1.600000
21.200001 42.400002 1.600000
21.200001 42.799999 1.600000
21.200001 43.200001 1.600000
21.200001 43.600002 1.600000
21.200001 44.000000 1.600000
21.200001 44.400002 1.600000
21.200001 44.799999 1.600000
21.200001 45.200001 1.600000
21.200001 45.600002 1.600000
21.200001 46.000000 1.600000
21.200001 46.400002 1.600000
21.200001 46.799999 1.600000
21.200001 47.200001 1.600000
21.200001 47.600002 1.600000
21.200001 48.000000 1.600000
21.200001 48.400002 1.600000
21.200001 48.799999 1.600000
21.200001 49.200001 1.600000
21.200001 49.600002 1.600000
21.200001 50.000000 1.600000
21.200001 50.400002 1.600000
21.200001 50.799999 1.600000
21.600000 2.000000 1.600000
21.600000 1.600000 2.000000
21.600000 1.600000 2.400000
21.600000 1.600000 2.800000
21.600000 1.600000 3.200000
21.600000 1.600000 3.600000
21.600000 1.600000 4.000000
21.600000 1.600000 4.400000
21.600000 1.600000 4.800000
21.600000 1.600000 5.200000
21.600000 1.600000 5.600000
21.600000 1.600000 6.000000
21.600000 1.600000 6.400000
21.600000 1.600000 6.800000
21.600000 1.600000 7.200000
21.600000 1.600000 7.600000
21.600000 1.600000 8.000000
21.600000 1.600000 8.400001
21.600000 1.600000 8.800000
21.600000 1.600000 9.200000
21.600000 1.600000 9.600000
21.600000 1.600000 10.000000
21.600000 1.600000 10.400001
21.600000 1.600000 10.800000
21.600000 1.600000 11.200000
21.600000 1.600000 11.600000
21.600000 1.600000 12.000000
21.600000 1.600000 12.400001
21.600000 1.600036 12.800000
21.600000 1.600000 13.200000
21.600000 1.600000 13.600000
21.600000 1.600000 14.000000
21.600000 1.600000 14.400001
21.600000 1.600000 14.800000
21.600000 1.600000 15.200000
21.600000 1.600000 15.600000
21.600000 1.600000 16.000000
21.600000 1.600000 16.400000
21.600000 1.600000 16.800001
21.600000 1.600000 17.200001
21.600000 1.600000 17.600000
21.600000 1.600000 18.000000
21.600000 1.600000 18.400000
21.600000 1.600000 18.800001
21.600000 1.600000 19.200001
21.600000 1.600000 19.600000
21.600000 1.600000 20.000000
21.600000 1.600000 20.400000
21.600000 1.600000 20.800001
21.600000 1.600000 21.200001
21.600000 1.600000 21.600000
21.600000 1.600000 22.000000
21.600000 1.600000 22.400000
21.600000 1.600000 22.800001
21.600000 1.600000 23.200001
21.600000 1.600000 23.600000
21.600000 1.600000 24.000000
21.600000 1.600000 24.400000
21.600000 1.600000 24.800001
21.600000 1.600000 25.200001
21.600000 1.600000 25.600000
21.600000 1.600000 26.000000
21.600000 1.600000 26.400000
21.600000 1.600000 26.800001
21.600000 1.600000 27.200001
21.600000 1.600000 27.600000
21.600000 1.600000 28.000000
21.600000 1.600000 28.400000
21.600000 1.600000 28.800001
21.600000 1.600000 29.200001
21.600000 1.600000 29.600000
21.600000 1.600000 30.000000
21.600000 1.600000 30.400000
21.600000 1.600000 30.800001
21.600000 1.600000 31.200001
21.600000 1.600000 31.600000
21.600000 1.600000 32.000000
21.600000 1.600000 32.400002
21.600000 1.600000 32.799999
21.600000 1.600000 33.200001
21.600000 1.600000 33.600002
21.600000 1.600000 34.000000
21.600000 1.600000 34.400002
21.600000 1.600000 34.799999
21.600000 1.600000 35.200001
21.600000 1.600000 35.600002
21.600000 1.600000 36.000000
21.600000 1.600000 36.400002
21.600000 1.600000 36.799999
21.600000 1.600000 37.200001
21.600000 1.600000 37.600002
21.600000 1.600000 38.000000
21.600000 1.600000 38.400002
21.600000 1.600000 38.799999
21.600000 1.600000 39.200001
21.600000 1.600000 39.600002
21.600000 1.600000 40.000000
21.600000 1.600000 40.400002
21.600000 1.600000 40.799999
21.600000 1.600000 41.200001
21.600000 1.600000 41.600002
21.600000 1.600000 42.000000
21.600000 1.600000 42.400002
21.600000 1.600000 42.799999
21.600000 1.600000 43.200001
21.600000 1.600000 43.600002
21.600000 1.600000 44.000000
21.600000 1.600000 44.400002
21.600000 1.600000 44.799999
21.600000 1.600000 45.200001
21.600000 1.600000 45.600002
21.600000 1.600000 46.000000
21.600000 1.600000 46.400002
21.600000 1.600000 46.799999
21.600000 1.600000 47.200001
21.600000 1.600000 47.600002
21.600000 1.600000 48.000000
21.600000 1.600000 48.400002
21.600000 1.600000 48.799999
21.600000 1.600000 49.200001
21.600000 1.600000 49.600002
21.600000 1.600000 50.000000
21.600000 1.600000 50.400002
21.600000 1.600000 50.799999
21.600000 2.400000 1.600000
21.600000 2.800000 1.600000
21.600000 3.200000 1.600000
21.600000 3.600000 1.600000
21.600000 4.000000 1.600000
21.600000 4.400000 1.600000
21.600000 4.800000 1.600000
21.600000 5.200000 1.600000
21.600000 5.600000 1.600000
21.600000 6.000000 1.600000
21.600000 6.400000 1.600000
21.600000 6.800000 1.600000
21.600000 7.200000 1.600000
21.600000 7.600000 1.600000
21.600000 8.000000 1.600000
21.600000 8.400001 1.600000
21.600000 8.800000 1.600000
21.600000 9.200000 1.600000
21.600000 9.600000 1.600000
21.600000 10.000000 1.600000
21.600000 10.400001 1.600000
21.600000 10.800000 1.600000
21.600000 11.200000 1.600000
21.600000 11.600000 1.600000
21.600000 12.000000 1.600000
21.600000 12.400001 1.600000
21.600000 12.800000 1.600000
21.600000 13.200000 1.600000
21.600000 13.600000 1.600000
21.600000 14.000000 1.600000
21.600000 14.400001 1.600000
21.600000 14.800000 1.600000
21.600000 15.200000 1.600000
21.600000 15.600000 1.600000
21.600000 16.000000 1.600000
21.600000 16.400000 1.600000
21.600000 16.800001 1.600000
21.600000 17.200001 1.600000
21.600000 17.600000 1.600000
21.600000 18.000000 1.600000
21.600000 18.400000 1.600000
21.600000 18.800001 1.600000
21.600000 19.200001 1.600000
21.600000 19.600000 1.600000
21.600000 20.000000 1.600000
21.600000 20.400000 1.600000
21.600000 20.800001 1.600000
21.600000 21.200001 1.600000
21.600000 21.600000 1.600000
21.600000 22.000000 1.600000
21.600000 22.400000 1.600000
21.600000 22.800001 1.600000
21.600000 23.200001 1.600000
21.600000 23.600000 1.600000
21.600000 24.000000 1.600000
21.600000 24.400000 1.600000
21.600000 24.800001 1.600000
21.600000 25.200001 1.600000
21.600000 25.600000 1.600000
21.600000 26.000000 1.600000
21.600000 26.400000 1.600000
21.600000 26.800001 1.600000
21.600000 27.200001 1.600000
21.600000 27.600000 1.600000
21.600000 28.000000 1.600000
21.600000 28.400000 1.600000
21.600000 28.800001 1.600000
21.600000 29.200001 1.600000
21.600000 29.600000 1.600000
21.600000 30.000000 1.600000
21.600000 30.400000 1.600000
21.600000 30.800001 1.600000
21.600000 31.200001 1.600000
21.600000 31.600000 1.600000
21.600000 32.000000 1.600000
21.600000 32.400002 1.600000
21.600000 32.799999 1.600000
21.600000 33.200001 1.600000
21.600000 33.600002 1.600000
21.600000 34.000000 1.600000
21.600000 34.400002 1.600000
21.600000 34.799999 1.600000
21.600000 35.200001 1.600000
21.600000 35.600002 1.600000
21.600000 36.000000 1.600000
21.600000 36.400002 1.600000
21.600000 36.799999 1.600000
21.600000 37.200001 1.600000
21.600000 37.600002 1.600000
21.600000 38.000000 1.600000
21.600000 38.400002 1.600000
21.600000 38.799999 1.600000
21.600000 39.200001 1.600000
21.600000 39.600002 1.600000
21.600000 40.000000 1.600000
21.600000 40.400002 1.600000
21.600000 40.799999 1.600000
21.600000 41.200001 1.600000
21.600000 41.600002 1.600000
21.600000 42.000000 1.600000
21.600000 42.400002 1.600000
21.600000 42.799999 1.600000
21.600000 43.200001 1.600000
21.600000 43.600002 1.600000
21.600000 44.000000 1.600000
21.600000 44.400002 1.600000
21.600000 44.799999 1.600000
21.600000 45.200001 1.600000
21.600000 45.600002 1.600000
21.600000 46.000000 1.600000
21.600000 46.400002 1.600000
21.600000 46.799999 1.600000
21.600000 47.200001 1.600000
21.600000 47.600002 1.600000
21.600000 48.000000 1.600000
21.600000 48.400002 1.600000
21.600000 48.799999 1.600000
21.600000 49.200001 1.600000
21.600000 49.600002 1.600000
21.600000 50.000000 1.600000
21.600000 50.400002 1.600000
21.600000 50.799999 1.600000
22.000000 2.000000 1.600000
22.000000 1.600000 2.000000
22.000000 1.600000 2.400000
22.000000 1.600000 2.800000
22.000000 1.600000 3.200000
22.000000 1.600000 3.600000
22.000000 1.600000 4.000000
22.000000 1.600000 4.400000
22.000000 1.600000 4.800000
22.000000 1.600000 5.200000
22.000000 1.600000 5.600000
22.000000 1.600000 6.000000
22.000000 1.600000 6.400000
22.000000 1.600000 6.800000
22.000000 1.600000 7.200000
22.000000 1.600000 7.600000
22.000000 1.600000 8.000000
22.000000 1.600000 8.400001
22.000000 1.600000 8.800000
22.000000 1.600000 9.200000
22.000000 1.600000 9.600000
22.000000 1.600000 10.000000
22.000000 1.600000 10.400001
22.000000 1.600000 10.800000
22.000000 1.600000 11.200000
22.000000 1.600000 11.600000
22.000000 1.600000 12.000000
22.000000 1.603613 12.400001
22.000000 1.603728 12.800000
22.000000 1.602444 13.200000
22.000000 1.602446 13.600000
22.000000 1.600000 14.000000
22.000000 1.600000 14.400001
22.000000 1.600000 14.800000
22.000000 1.600000 15.200000
22.000000 1.600000 15.600000
22.000000 1.600000 16.000000
22.000000 1.600000 16.400000
22.000000 1.600000 16.800001
22.000000 1.600000 17.200001
22.000000 1.600000 17.600000
22.000000 1.600000 18.000000
22.000000 1.600000 18.400000
22.000000 1.600000 18.800001
22.000000 1.600000 19.200001
22.000000 1.600000 19.600000
22.000000 1.600000 20.000000
22.000000 1.600000 20.400000
22.000000 1.600000 20.800001
22.000000 1.600000 21.200001
22.000000 1.600000 21.600000
22.000000 1.600000 22.000000
22.000000 1.600000 22.400000
22.000000 1.600000 22.800001
22.000000 1.600000 23.200001
22.000000 1.600000 23.600000
22.000000 1.600000 24.000000
22.000000 1.600000 24.400000
22.000000 1.600000 24.800001
22.000000 1.600000 25.200001
22.000000 1.600000 25.600000
22.000000 1.600000 26.000000
22.000000 1.600000 26.400000
22.000000 1.600000 26.800001
22.000000 1.600000 27.200001
22.000000 1.600000 27.600000
22.000000 1.600000 28.000000
22.000000 1.600000 28.400000
22.000000 1.600000 28.800001
22.000000 1.600000 29.200001
22.000000 1.600000 29.600000
22.000000 1.600000 30.000000
22.000000 1.600000 30.400000
22.000000 1.600000 30.800001
22.000000 1.600000 31.200001
22.000000 1.600000 31.600000
22.000000 1.600000 32.000000
22.000000 1.600000 32.400002
22.000000 1.600000 32.799999
22.000000 1.600000 33.200001
22.000000 1.600000 33.600002
22.000000 1.600000 34.000000
22.000000 1.600000 34.400002
22.000000 1.600000 34.799999
22.000000 1.600000 35.200001
22.000000 1.600000 35.600002
22.000000 1.600000 36.000000
22.000000 1.600000 36.400002
22.000000 1.600000 36.799999
22.000000 1.600000 37.200001
22.000000 1.600000 37.600002
22.000000 1.600000 38.000000
22.000000 1.600000 38.400002
22.000000 1.600000 38.799999
22.000000 1.600000 39.200001
22.000000 1.600000 39.600002
22.000000 1.600000 40.000000
22.000000 1.600000 40.400002
22.000000 1.600000 40.799999
22.000000 1.600000 41.200001
22.000000 1.600000 41.600002
22.000000 1.600000 42.000000
22.000000 1.600000 42.400002
22.000000 1.600000 42.799999
22.000000 1.600000 43.200001
22.000000 1.600000 43.600002
22.000000 1.600000 44.000000
22.000000 1.600000 44.400002
22.000000 1.600000 44.799999
22.000000 1.600000 45.200001
22.000000 1.600000 45.600002
22.000000 1.600000 46.000000
22.000000 1.600000 46.400002
22.000000 1.600000 46.799999
22.000000 1.600000 47.200001
22.000000 1.600000 47.600002
22.000000 1.600000 48.000000
22.000000 1.600000 48.400002
22.000000 1.600000 48.799999
22.000000 1.600000 49.200001
22.000000 1.600000 49.600002
22.000000 1.600000 50.000000
22.000000 1.600000 50.400002
22.000000 1.600000 50.799999
22.000000 2.400000 1.600000
22.000000 2.800000 1.600000
22.000000 3.200000 1.600000
22.000000 3.600000 1.600000
22.000000 4.000000 1.600000
22.000000 4.400000 1.600000
22.000000 4.800000 1.600000
22.000000 5.200000 1.600000
22.000000 5.600000 1.600000
22.000000 6.000000 1.600000
22.000000 6.400000 1.600000
22.000000 6.800000 1.600000
22.000000 7.200000 1.600000
22.000000 7.600000 1.600000
22.000000 8.000000 1.600000
22.000000 8.400001 1.600000
22.000000 8.800000 1.600000
22.000000 9.200000 1.600000
22.000000 9.600000 1.600000
22.000000 10.000000 1.600000
22.000000 10.400001 1.600000
22.000000 10.800000 1.600000
22.000000 11.200000 1.600000
22.000000 11.600000 1.600000
22.000000 12.000000 1.600000
22.000000 12.400001 1.600000
22.000000 12.800000 1.600000
22.000000 13.200000 1.600000
22.000000 13.600000 1.600000
22.000000 14.000000 1.600000
22.000000 14.400001 1.600000
22.000000 14.800000 1.600000
22.000000 15.200000 1.600000
22.000000 15.600000 1.600000
22.000000 16.000000 1.600000
22.000000 16.400000 1.600000
22.000000 16.800001 1.600000
22.000000 17.200001 1.600000
22.000000 17.600000 1.600000
22.000000 18.000000 1.600000
22.000000 18.400000 1.600000
22.000000 18.800001 1.600000
22.000000 19.200001 1.600000
22.000000 19.600000 1.600000
22.000000 20.000000 1.600000
22.000000 20.400000 1.600000
22.000000 20.800001 1.600000
22.000000 21.200001 1.600000
22.000000 21.600000 1.600000
22.000000 22.000000 1.600000
22.000000 22.400000 1.600000
22.000000 22.800001 1.600000
22.000000 23.200001 1.600000
22.000000 23.600000 1.600000
22.000000 24.000000 1.600000
22.000000 24.400000 1.600000
22.000000 24.800001 1.600000
22.000000 25.200001 1.600000
22.000000 25.600000 1.600000
22.000000 26.000000 1.600000
22.000000 26.400000 1.600000
22.000000 26.800001 1.600000
22.000000 27.200001 1.600000
22.000000 27.600000 1.600000
22.000000 28.000000 1.600000
22.000000 28.400000 1.600000
22.000000 28.800001 1.600000
22.000000 29.200001 1.600000
22.000000 29.600000 1.600000
22.000000 30.000000 1.600000
22.000000 30.400000 1.600000
22.000000 30.800001 1.600000
22.000000 31.200001 1.600000
22.000000 31.600000 1.600000
22.000000 32.000000 1.600000
22.000000 32.400002 1.600000
22.000000 32.799999 1.600000
22.000000 33.200001 1.600000
22.000000 33.600002 1.600000
22.000000 34.000000 1.600000
22.000000 34.400002 1.600000
22.000000 34.799999 1.600000
22.000000 35.200001 1.600000
22.000000 35.600002 1.600000
22.000000 36.000000 1.600000
22.000000 36.400002 1.600000
22.000000 36.799999 1.600000
22.000000 37.200001 1.600000
22.000000 37.600002 1.600000
22.000000 38.000000 1.600000
22.000000 38.400002 1.600000
22.000000 38.799999 1.600000
22.000000 39.200001 1.600000
22.000000 39.600002 1.600000
22.000000 40.000000 1.600000
22.000000 40.400002 1.600000
22.000000 40.799999 1.600000
22.000000 41.200001 1.600000
22.000000 41.600002 1.600000
22.000000 42.000000 1.600000
22.000000 42.400002 1.600000
22.000000 42.799999 1.600000
22.000000 43.200001 1.600000
22.000000 43.600002 1.600000
22.000000 44.000000 1.600000
22.000000 44.400002 1.600000
22.000000 44.799999 1.600000
22.000000 45.200001 1.600000
22.000000 45.600002 1.600000
22.000000 46.000000 1.600000
22.000000 46.400002 1.600000
22.000000 46.799999 1.600000
22.000000 47.200001 1.600000
22.000000 47.600002 1.600000
22.000000 48.000000 1.600000
22.000000 48.400002 1.600000
22.000000 48.799999 1.600000
22.000000 49.200001 1.600000
22.000000 49.600002 1.600000
22.000000 50.000000 1.600000
22.000000 50.400002 1.600000
22.000000 50.799999 1.600000
22.400000 2.000000 1.600000
22.400000 1.600000 2.000000
22.400000 1.600000 2.400000
22.400000 1.600000 2.800000
22.400000 1.600000 3.200000
22.400000 1.600000 3.600000
22.400000 1.600000 4.000000
22.400000 1.600000 4.400000
22.400000 1.600000 4.800000
22.400000 1.600000 5.200000
22.400000 1.600000 5.600000
22.400000 1.600000 6.000000
22.400000 1.600000 6.400000
22.400000 1.600000 6.800000
22.400000 1.600000 7.200000
22.400000 1.600000 7.600000
22.400000 1.600000 8.000000
22.400000 1.600000 8.400001
22.400000 1.600000 8.800000
22.400000 1.600000 9.200000
22.400000 1.600000 9.600000
22.400000 1.600000 10.000000
22.400000 1.600000 10.400001
22.400000 1.600000 10.800000
22.400000 1.600000 11.200000
22.400000 1.600000 11.600000
22.400000 1.600000 12.000000
22.400000 1.603685 12.400001
22.400000 1.603798 12.800000
22.400000 1.759727 13.200000
22.400000 1.602500 13.600000
22.400000 1.602694 14.000000
22.400000 1.600000 14.400001
22.400000 1.600000 14.800000
22.400000 1.600000 15.200000
22.400000 1.600000 15.600000
22.400000 1.600000 16.000000
22.400000 1.600000 16.400000
22.400000 1.600000 16.800001
22.400000 1.600000 17.200001
22.400000 1.600000 17.600000
22.400000 1.600000 18.000000
22.400000 1.600000 18.400000
22.400000 1.600000 18.800001
22.400000 1.600000 19.200001
22.400000 1.600000 19.600000
22.400000 1.600000 20.000000
22.400000 1.600000 20.400000
22.400000 1.600000 20.800001
22.400000 1.600000 21.200001
22.400000 1.600000 21.600000
22.400000 1.600000 22.000000
22.400000 1.600000 22.400000
22.400000 1.600000 22.800001
22.400000 1.600000 23.200001
22.400000 1.600000 23.600000
22.400000 1.600000 24.000000
22.400000 1.600000 24.400000
22.400000 1.600000 24.800001
22.400000 1.600000 25.200001
22.400000 1.600000 25.600000
22.400000 1.600000 26.000000
22.400000 1.600000 26.400000
22.400000 1.600000 26.800001
22.400000 1.600000 27.200001
22.400000 1.600000 27.600000
22.400000 1.600000 28.000000
22.400000 1.600000 28.400000
22.400000 1.600000 28.800001
22.400000 1.600000 29.200001
22.400000 1.600000 29.600000
22.400000 1.600000 30.000000
22.400000 1.600000 30.400000
22.400000 1.600000 30.800001
22.400000 1.600000 31.200001
22.400000 1.600000 31.600000
22.400000 1.600000 32.000000
22.400000 1.600000 32.400002
22.400000 1.600000 32.799999
22.400000 1.600000 33.200001
22.400000 1.600000 33.600002
22.400000 1.600000 34.000000
22.400000 1.600000 34.400002
22.400000 1.600000 34.799999
22.400000 1.600000 35.200001
22.400000 1.600000 35.600002
22.400000 1.600000 36.000000
22.400000 1.600000 36.400002
22.400000 1.600000 36.799999
22.400000 1.600000 37.200001
22.400000 1.600000 37.600002
22.400000 1.600000 38.000000
22.400000 1.600000 38.400002
22.400000 1.600000 38.799999
22.400000 1.600000 39.200001
22.400000 1.600000 39.600002
22.400000 1.600000 40.000000
22.400000 1.600000 40.400002
22.400000 1.600000 40.799999
22.400000 1.600000 41.200001
22.400000 1.600000 41.600002
22.400000 1.600000 42.000000
22.400000 1.600000 42.400002
22.400000 1.600000 42.799999
22.400000 1.600000 43.200001
22.400000 1.600000 43.600002
22.400000 1.600000 44.000000
22.400000 1.600000 44.400002
22.400000 1.600000 44.799999
22.400000 1.600000 45.200001
22.400000 1.600000 45.600002
22.400000 1.600000 46.000000
22.400000 1.600000 46.400002
22.400000 1.600000 46.799999
22.400000 1.600000 47.200001
22.400000 1.600000 47.600002
22.400000 1.600000 48.000000
22.400000 1.600000 48.400002
22.400000 1.600000 48.799999
22.400000 1.600000 49.200001
22.400000 1.600000 49.600002
22.400000 1.600000 50.000000
22.400000 1.600000 50.400002
22.400000 1.600000 50.799999
22.400000 2.400000 1.600000
22.400000 2.800000 1.600000
22.400000 3.200000 1.600000
22.400000 3.600000 1.600000
22.400000 4.000000 1.600000
22.400000 4.400000 1.600000
22.400000 4.800000 1.600000
22.400000 5.200000 1.600000
22.400000 5.600000 1.600000
22.400000 6.000000 1.600000
22.400000 6.400000 1.600000
22.400000 6.800000 1.600000
22.400000 7.200000 1.600000
22.400000 7.600000 1.600000
22.400000 8.000000 1.600000
22.400000 8.400001 1.600000
22.400000 8.800000 1.600000
22.400000 9.200000 1.600000
22.400000 9.600000 1.600000
22.400000 10.000000 1.600000
22.400000 10.400001 1.600000
22.400000 10.800000 1.600000
22.400000 11.200000 1.600000
22.400000 11.600000 1.600000
22.400000 12.000000 1.600000
22.400000 12.400001 1.600000
22.400000 12.800000 1.600000
22.400000 13.200000 1.600000
22.400000 13.600000 1.600000
22.400000 14.000000 1.600000
22.400000 14.400001 1.600000
22.400000 14.800000 1.600000
22.400000 15.200000 1.600000
22.400000 15.600000 1.600000
22.400000 16.000000 1.600000
22.400000 16.400000 1.600000
22.400000 16.800001 1.600000
22.400000 17.200001 1.600000
22.400000 17.600000 1.600000
22.400000 18.000000 1.600000
22.400000 18.400000 1.600000
22.400000 18.800001 1.600000
22.400000 19.200001 1.600000
22.400000 19.600000 1.600000
22.400000 20.000000 1.600000
22.400000 20.400000 1.600000
22.400000 20.800001 1.600000
22.400000 21.200001 1.600000
22.400000 21.600000 1.600000
22.400000 22.000000 1.600000
22.400000 22.400000 1.600000
22.400000 22.800001 1.600000
22.400000 23.200001 1.600000
22.400000 23.600000 1.600000
22.400000 24.000000 1.600000
22.400000 24.400000 1.600000
22.400000 24.800001 1.600000
22.400000 25.200001 1.600000
22.400000 25.600000 1.600000
22.400000 26.000000 1.600000
22.400000 26.400000 1.600000
22.400000 26.800001 1.600000
22.400000 27.200001 1.600000
22.400000 27.600000 1.600000
22.400000 28.000000 1.600000
22.400000 28.400000 1.600000
22.400000 28.800001 1.600000
22.400000 29.200001 1.600000
22.400000 29.600000 1.600000
22.400000 30.000000 1.600000
22.400000 30.400000 1.600000
22.400000 30.800001 1.600000
22.400000 31.200001 1.600000
22.400000 31.600000 1.600000
22.400000 32.000000 1.600000
22.400000 32.400002 1.600000
22.400000 32.799999 1.600000
22.400000 33.200001 1.600000
22.400000 33.600002 1.600000
22.400000 34.000000 1.600000
22.400000 34.400002 1.600000
22.400000 34.799999 1.600000
22.400000 35.200001 1.600000
22.400000 35.600002 1.600000
22.400000 36.000000 1.600000
22.400000 36.400002 1.600000
22.400000 36.799999 1.600000
22.400000 37.200001 1.600000
22.400000 37.600002 1.600000
22.400000 38.000000 1.600000
22.400000 38.400002 1.600000
22.400000 38.799999 1.600000
22.400000 39.200001 1.600000
22.400000 39.600002 1.600000
22.400000 40.000000 1.600000
22.400000 40.400002 1.600000
22.400000 40.799999 1.600000
22.400000 41.200001 1.600000
22.400000 41.600002 1.600000
22.400000 42.000000 1.600000
22.400000 42.400002 1.600000
22.400000 42.799999 1.600000
22.400000 43.200001 1.600000
22.400000 43.600002 1.600000
22.400000 44.000000 1.600000
22.400000 44.400002 1.600000
22.400000 44.799999 1.600000
22.400000 45.200001 1.600000
22.400000 45.600002 1.600000
22.400000 46.000000 1.600000
22.400000 46.400002 1.600000
22.400000 46.799999 1.600000
22.400000 47.200001 1.600000
22.400000 47.600002 1.600000
22.400000 48.000000 1.600000
22.400000 48.400002 1.600000
22.400000 48.799999 1.600000
22.400000 49.200001 1.600000
22.400000 49.600002 1.600000
22.400000 50.000000 1.600000
22.400000 50.400002 1.600000
22.400000 50.799999 1.600000
22.800001 2.000000 1.600000
22.800001 1.600000 2.000000
22.800001 1.600000 2.400000
22.800001 1.600000 2.800000
22.800001 1.600000 3.200000
22.800001 1.600000 3.600000
22.800001 1.600000 4.000000
22.800001 1.600000 4.400000
22.800001 1.600000 4.800000
22.800001 1.600000 5.200000
22.800001 1.600000 5.600000
22.800001 1.600000 6.000000
22.800001 1.600000 6.400000
22.800001 1.600000 6.800000
22.800001 1.600000 7.200000
22.800001 1.600000 7.600000
22.800001 1.600000 8.000000
22.800001 1.600000 8.400001
22.800001 1.600000 8.800000
22.800001 1.600000 9.200000
22.800001 1.600000 9.600000
22.800001 1.600000 10.000000
22.800001 1.600000 10.400001
22.800001 1.600000 10.800000
22.800001 1.600000 11.200000
22.800001 1.600000 11.600000
22.800001 1.603735 12.000000
22.800001 1.603851 12.400001
22.800001 1.756844 12.800000
22.800001 1.763528 13.200000
22.800001 1.765164 13.600000
22.800001 1.779676 14.000000
22.800001 1.602777 14.400001
22.800001 1.602976 14.800000
22.800001 1.600000 15.200000
22.800001 1.600000 15.600000
22.800001 1.600000 16.000000
22.800001 1.600000 16.400000
22.800001 1.600000 16.800001
22.800001 1.600000 17.200001
22.800001 1.600000 17.600000
22.800001 1.600000 18.000000
22.800001 1.600000 18.400000
22.800001 1.600000 18.800001
22.800001 1.600000 19.200001
22.800001 1.600000 19.600000
22.800001 1.600000 20.000000
22.800001 1.600000 20.400000
22.800001 1.600000 20.800001
22.800001 1.600000 21.200001
22.800001 1.600000 21.600000
22.800001 1.600000 22.000000
22.800001 1.600000 22.400000
22.800001 1.600000 22.800001
22.800001 1.600000 23.200001
22.800001 1.600000 23.600000
22.800001 1.600000 24.000000
22.800001 1.600000 24.400000
22.800001 1.600000 24.800001
22.800001 1.600000 25.200001
22.800001 1.600000 25.600000
22.800001 1.600000 26.000000
22.800001 1.600000 26.400000
22.800001 1.600000 26.800001
22.800001 1.600000 27.200001
22.800001 1.600000 27.600000
22.800001 1.600000 28.000000
22.800001 1.600000 28.400000
22.800001 1.600000 28.800001
22.800001 1.600000 29.200001
22.800001 1.600000 29.600000
22.800001 1.600000 30.000000
22.800001 1.600000 30.400000
22.800001 1.600000 30.800001
22.800001 1.600000 31.200001
22.800001 1.600000 31.600000
22.800001 1.600000 32.000000
22.800001 1.600000 32.400002
22.800001 1.600000 32.799999
22.800001 1.600000 33.200001
22.800001 1.600000 33.600002
22.800001 1.600000 34.000000
22.800001 1.600000 34.400002
22.800001 1.600000 34.799999
22.800001 1.600000 35.200001
22.800001 1.600000 35.600002
22.800001 1.600000 36.000000
22.800001 1.600000 36.400002
22.800001 1.600000 36.799999
22.800001 1.600000 37.200001
22.800001 1.600000 37.600002
22.800001 1.600000 38.000000
22.800001 1.600000 38.400002
22.800001 1.600000 38.799999
22.800001 1.600000 39.200001
22.800001 1.600000 39.600002
22.800001 1.600000 40.000000
22.800001 1.600000 40.400002
22.800001 1.600000 40.799999
22.800001 1.600000 41.200001
22.800001 1.600000 41.600002
22.800001 1.600000 42.000000
22.800001 1.600000 42.400002
22.800001 1.600000 42.799999
22.800001 1.600000 43.200001
22.800001 1.600000 43.600002
22.800001 1.600000 44.000000
22.800001 1.600000 44.400002
22.800001 1.600000 44.799999
22.800001 1.600000 45.200001
22.800001 1.600000 45.600002
22.800001 1.600000 46.000000
22.800001 1.600000 46.400002
22.800001 1.600000 46.799999
22.800001 1.600000 47.200001
22.800001 1.600000 47.600002
22.800001 1.600000 48.000000
22.800001 1.600000 48.400002
22.800001 1.600000 48.799999
22.800001 1.600000 49.200001
22.800001 1.600000 49.600002
22.800001 1.600000 50.000000
22.800001 1.600000 50.400002
22.800001 1.600000 50.799999
22.800001 2.400000 1.600000
22.800001 2.800000 1.600000
22.800001 3.200000 1.600000
22.800001 3.600000 1.600000
22.800001 4.000000 1.600000
22.800001 4.400000 1.600000
22.800001 4.800000 1.600000
22.800001 5.200000 1.600000
22.800001 5.600000 1.600000
22.800001 6.000000 1.600000
22.800001 6.400000 1.600000
22.800001 6.800000 1.600000
22.800001 7.200000 1.600000
22.800001 7.600000 1.600000
22.800001 8.000000 1.600000
22.800001 8.400001 1.600000
22.800001 8.800000 1.600000
22.800001 9.200000 1.600000
22.800001 9.600000 1.600000
22.800001 10.000000 1.600000
22.800001 10.400001 1.600000
22.800001 10.800000 1.600000
22.800001 11.200000 1.600000
22.800001 11.600000 1.600000
22.800001 12.000000 1.600000
22.800001 12.400001 1.600000
22.800001 12.800000 1.600000
22.800001 13.200000 1.600000
22.800001 13.600000 1.600000
22.800001 14.000000 1.600000
22.800001 14.400001 1.600000
22.800001 14.800000 1.600000
22.800001 15.200000 1.600000
22.800001 15.600000 1.600000
22.800001 16.000000 1.600000
22.800001 16.400000 1.600000
22.800001 16.800001 1.600000
22.800001 17.200001 1.600000
22.800001 17.600000 1.600000
22.800001 18.000000 1.600000
22.800001 18.400000 1.600000
22.800001 18.800001 1.600000
22.800001 19.200001 1.600000
22.800001 19.600000 1.600000
22.800001 20.000000 1.600000
22.800001 20.400000 1.600000
22.800001 20.800001 1.600000
22.800001 21.200001 1.600000
22.800001 21.600000 1.600000
22.800001 22.000000 1.600000
22.800001 22.400000 1.600000
22.800001 22.800001 1.600000
22.800001 23.200001 1.600000
22.800001 23.600000 1.600000
22.800001 24.000000 1.600000
22.800001 24.400000 1.600000
22.800001 24.800001 1.600000
22.800001 25.200001 1.600000
22.800001 25.600000 1.600000
22.800001 26.000000 1.600000
22.800001 26.400000 1.600000
22.800001 26.800001 1.600000
22.800001 27.200001 1.600000
22.800001 27.600000 1.600000
22.800001 28.000000 1.600000
22.800001 28.400000 1.600000
22.800001 28.800001 1.600000
22.800001 29.200001 1.600000
22.800001 29.600000 1.600000
22.800001 30.000000 1.600000
22.800001 30.400000 1.600000
22.800001 30.800001 1.600000
22.800001 31.200001 1.600000
22.800001 31.600000 1.600000
22.800001 32.000000 1.600000
22.800001 32.400002 1.600000
22.800001 32.799999 1.600000
22.800001 33.200001 1.600000
22.800001 33.600002 1.600000
22.800001 34.000000 1.600000
22.800001 34.400002 1.600000
22.800001 34.799999 1.600000
22.800001 35.200001 1.600000
22.800001 35.600002 1.600000
22.800001 36.000000 1.600000
22.800001 36.400002 1.600000
22.800001 36.799999 1.600000
22.800001 37.200001 1.600000
22.800001 37.600002 1.600000
22.800001 38.000000 1.600000
22.800001 38.400002 1.600000
22.800001 38.799999 1.600000
22.800001 39.200001 1.600000
22.800001 39.600002 1.600000
22.800001 40.000000 1.600000
22.800001 40.400002 1.600000
22.800001 40.799999 1.600000
22.800001 41.200001 1.600000
22.800001 41.600002 1.600000
22.800001 42.000000 1.600000
22.800001 42.400002 1.600000
22.800001 42.799999 1.600000
22.800001 43.200001 1.600000
22.800001 43.600002 1.600000
22.800001 44.000000 1.600000
22.800001 44.400002 1.600000
22.800001 44.799999 1.600000
22.800001 45.200001 1.600000
22.800001 45.600002 1.600000
22.800001 46.000000 1.600000
22.800001 46.400002 1.600000
22.800001 46.799999 1.600000
22.800001 47.200001 1.600000
22.800001 47.600002 1.600000
22.800001 48.000000 1.600000
22.800001 48.400002 1.600000
22.800001 48.799999 1.600000
22.800001 49.200001 1.600000
22.800001 49.600002 1.600000
22.800001 50.000000 1.600000
22.800001 50.400002 1.600000
22.800001 50.799999 1.600000
23.200001 2.000000 1.600000
23.200001 1.600000 2.000000
23.200001 1.600000 2.400000
23.200001 1.600000 2.800000
23.200001 1.600000 3.200000
23.200001 1.600000 3.600000
23.200001 1.600000 4.000000
23.200001 1.600000 4.400000
23.200001 1.600000 4.800000
23.200001 1.600000 5.200000
23.200001 1.600000 5.600000
23.200001 1.600000 6.000000
23.200001 1.600000 6.400000
23.200001 1.600000 6.800000
23.200001 1.600000 7.200000
23.200001 1.600000 7.600000
23.200001 1.600000 8.000000
23.200001 1.600000 8.400001
23.200001 1.600000 8.800000
23.200001 1.600000 9.200000
23.200001 1.600000 9.600000
23.200001 1.600000 10.000000
23.200001 1.600000 10.400001
23.200001 1.600000 10.800000
23.200001 1.600000 11.200000
23.200001 1.602360 11.600000
23.200001 1.603879 12.000000
23.200001 1.603953 12.400001
23.200001 1.764830 12.800000
23.200001 1.766939 13.200000
23.200001 1.781844 13.600000
23.200001 1.783325 14.000000
23.200001 1.790469 14.400001
23.200001 1.797650 14.800000
23.200001 1.603023 15.200000
23.200001 1.603223 15.600000
23.200001 1.600000 16.000000
23.200001 1.600000 16.400000
23.200001 1.600000 16.800001
23.200001 1.600000 17.200001
23.200001 1.600000 17.600000
23.200001 1.600000 18.000000
23.200001 1.600000 18.400000
23.200001 1.600000 18.800001
23.200001 1.600000 19.200001
23.200001 1.600000 19.600000
23.200001 1.600000 20.000000
23.200001 1.600000 20.400000
23.200001 1.600000 20.800001
23.200001 1.600000 21.200001
23.200001 1.600000 21.600000
23.200001 1.600000 22.000000
23.200001 1.600000 22.400000
23.200001 1.600000 22.800001
23.200001 1.600000 23.200001
23.200001 1.600000 23.600000
23.200001 1.600000 24.000000
23.200001 1.600000 24.400000
23.200001 1.600000 24.800001
23.200001 1.600000 25.200001
23.200001 1.600000 25.600000
23.200001 1.600000 26.000000
23.200001 1.600000 26.400000
23.200001 1.600000 26.800001
23.200001 1.600000 27.200001
23.200001 1.600000 27.600000
23.200001 1.600000 28.000000
23.200001 1.600000 28.400000
23.200001 1.600000 28.800001
23.200001 1.600000 29.200001
23.200001 1.600000 29.600000
23.200001 1.600000 30.000000
23.200001 1.600000 30.400000
23.200001 1.600000 30.800001
23.200001 1.600000 31.200001
23.200001 1.600000 31.600000
23.200001 1.600000 32.000000
23.200001 1.600000 32.400002
23.200001 1.600000 32.799999
23.200001 1.600000 33.200001
23.200001 1.600000 33.600002
23.200001 1.600000 34.000000
23.200001 1.600000 34.400002
23.200001 1.600000 34.799999
23.200001 1.600000 35.200001
23.200001 1.600000 35.600002
23.200001 1.600000 36.000000
23.200001 1.600000 36.400002
23.200001 1.600000 36.799999
23.200001 1.600000 37.200001
23.200001 1.600000 37.600002
23.200001 1.600000 38.000000
23.200001 1.600000 38.400002
23.200001 1.600000 38.799999
23.200001 1.600000 39.200001
23.200001 1.600000 39.600002
23.200001 1.600000 40.000000
23.200001 1.600000 40.400002
23.200001 1.600000 40.799999
23.200001 1.600000 41.200001
23.200001 1.600000 41.600002
23.200001 1.600000 42.000000
23.200001 1.600000 42.400002
23.200001 1.600000 42.799999
23.200001 1.600000 43.200001
23.200001 1.600000 43.600002
23.200001 1.600000 44.000000
23.200001 1.600000 44.400002
23.200001 1.600000 44.799999
23.200001 1.600000 45.200001
23.200001 1.600000 45.600002
23.200001 1.600000 46.000000
23.200001 1.600000 46.400002
23.200001 1.600000 46.799999
23.200001 1.600000 47.200001
23.200001 1.600000 47.600002
23.200001 1.600000 48.000000
23.200001 1.600000 48.400002
23.200001 1.600000 48.799999
23.200001 1.600000 49.200001
23.200001 1.600000 49.600002
23.200001 1.600000 50.000000
23.200001 1.600000 50.400002
23.200001 1.600000 50.799999
23.200001 2.400000 1.600000
23.200001 2.800000 1.600000
23.200001 3.200000 1.600000
23.200001 3.600000 1.600000
23.200001 4.000000 1.600000
23.200001 4.400000 1.600000
23.200001 4.800000 1.600000
23.200001 5.200000 1.600000
23.200001 5.600000 1.600000
23.200001 6.000000 1.600000
23.200001 6.400000 1.600000
23.200001 6.800000 1.600000
23.200001 7.200000 1.600000
23.200001 7.600000 1.600000
23.200001 8.000000 1.600000
23.200001 8.400001 1.600000
23.200001 8.800000 1.600000
23.200001 9.200000 1.600000
23.200001 9.600000 1.600000
23.200001 10.000000 1.600000
23.200001 10.400001 1.600000
23.200001 10.800000 1.600000
23.200001 11.200000 1.600000
23.200001 11.600000 1.600000
23.200001 12.000000 1.600000
23.200001 12.400001 1.600000
23.200001 12.800000 1.600000
23.200001 13.200000 1.600000
23.200001 13.600000 1.600000
23.200001 14.000000 1.600000
23.200001 14.400001 1.600000
23.200001 14.800000 1.600000
23.200001 15.200000 1.600000
23.200001 15.600000 1.600000
23.200001 16.000000 1.600000
23.200001 16.400000 1.600000
23.200001 16.800001 1.600000
23.200001 17.200001 1.600000
23.200001 17.600000 1.600000
23.200001 18.000000 1.600000
23.200001 18.400000 1.600000
23.200001 18.800001 1.600000
23.200001 19.200001 1.600000
23.200001 19.600000 1.600000
23.200001 20.000000 1.600000
23.200001 20.400000 1.600000
23.200001 20.800001 1.600000
23.200001 21.200001 1.600000
23.200001 21.600000 1.600000
23.200001 22.000000 1.600000
23.200001 22.400000 1.600000
23.200001 22.800001 1.600000
23.200001 23.200001 1.600000
23.200001 23.600000 1.600000
23.200001 24.000000 1.600000
23.200001 24.400000 1.600000
23.200001 24.800001 1.600000
23.200001 25.200001 1.600000
23.200001 25.600000 1.600000
23.200001 26.000000 1.600000
23.200001 26.400000 1.600000
23.200001 26.800001 1.600000
23.200001 27.200001 1.600000
23.200001 27.600000 1.600000
23.200001 28.000000 1.600000
23.200001 28.400000 1.600000
23.200001 28.800001 1.600000
23.200001 29.200001 1.600000
23.200001 29.600000 1.600000
23.200001 30.000000 1.600000
23.200001 30.400000 1.600000
23.200001 30.800001 1.600000
23.200001 31.200001 1.600000
23.200001 31.600000 1.600000
23.200001 32.000000 1.600000
23.200001 32.400002 1.600000
23.200001 32.799999 1.600000
23.200001 33.200001 1.600000
23.200001 33.600002 1.600000
23.200001 34.000000 1.600000
23.200001 34.400002 1.600000
23.200001 34.799999 1.600000
23.200001 35.200001 1.600000
23.200001 35.600002 1.600000
23.200001 36.000000 1.600000
23.200001 36.400002 1.600000
23.200001 36.799999 1.600000
23.200001 37.200001 1.600000
23.200001 37.600002 1.600000
23.200001 38.000000 1.600000
23.200001 38.400002 1.600000
23.200001 38.799999 1.600000
23.200001 39.200001 1.600000
23.200001 39.600002 1.600000
23.200001 40.000000 1.600000
23.200001 40.400002 1.600000
23.200001 40.799999 1.600000
23.200001 41.200001 1.600000
23.200001 41.600002 1.600000
23.200001 42.000000 1.600000
23.200001 42.400002 1.600000
23.200001 42.799999 1.600000
23.200001 43.200001 1.600000
23.200001 43.600002 1.600000
23.200001 44.000000 1.600000
23.200001 44.400002 1.600000
23.200001 44.799999 1.600000
