ply
format ascii 1.0
element vertex 1596
property float x
property float y
property float z
end_header
48.768559 37.600002 66.400002
48.799999 37.600002 66.431480
48.489792 37.600002 68.400002
48.462074 37.600002 68.800003
48.799999 37.323093 69.200005
48.461414 37.600002 69.200005
48.799999 37.600002 69.389435
48.799999 37.706860 66.000000
48.799999 38.000000 65.929726
48.799999 37.703087 66.400002
48.613350 38.000000 68.800003
48.799999 38.000000 68.985695
48.799999 37.786949 69.200005
48.709641 38.400002 65.200005
48.717312 38.400002 65.599998
48.799999 38.400002 65.624359
48.799999 38.400002 68.245316
48.799999 38.248352 68.400002
48.799999 38.222153 68.800003
48.573357 38.799999 64.800003
48.799999 38.769180 64.800003
48.799999 38.799999 64.769035
48.799999 38.547523 65.200005
48.799999 38.442509 65.599998
48.648876 38.799999 67.599998
48.654636 38.799999 68.000000
48.799999 38.799999 68.306313
48.799999 39.171543 64.000000
48.799999 39.200001 63.971802
48.799999 39.171566 64.400002
48.505051 39.200001 67.599998
48.799999 39.200001 67.906616
48.799999 39.104916 68.000000
48.799999 39.569271 63.200001
48.799999 39.600002 63.169106
48.799999 39.571026 63.600002
48.432755 39.600002 67.200005
48.433121 39.600002 67.599998
48.799999 39.600002 67.987793
48.425915 40.000000 62.400002
48.799999 40.000000 62.770454
48.799999 39.970348 62.799999
48.799999 40.000000 67.190979
48.799999 39.986065 67.200005
48.799999 39.986149 67.599998
48.799999 40.372620 62.000000
48.799999 40.400002 61.972530
48.799999 40.371471 62.400002
48.407726 40.400002 66.400002
48.453922 40.400002 66.800003
48.799999 40.059334 67.200005
48.745373 40.400002 67.200005
48.799999 40.400002 67.261284
48.430767 40.799999 61.200001
48.799999 40.799999 61.570263
48.799999 40.770275 61.600002
48.799999 40.461643 66.800003
48.799999 40.799999 66.463005
48.799999 40.461876 67.200005
48.799999 41.172451 60.799999
48.799999 41.200001 60.772503
48.799999 41.170528 61.200001
48.741791 41.200001 66.000000
48.799999 41.200001 66.058159
48.799999 40.862789 66.400002
48.799999 41.572414 60.000000
48.799999 41.600002 59.972298
48.799999 41.571659 60.400002
48.799999 41.600002 65.262321
48.799999 41.263763 65.599998
48.799999 41.258121 66.000000
48.429649 42.000000 59.200001
48.799999 42.000000 59.570892
48.799999 41.970802 59.600002
48.799999 42.000000 64.465546
48.799999 41.662338 64.800003
48.799999 41.661774 65.200005
48.799999 42.371052 58.799999
48.799999 42.400002 58.770882
48.799999 42.370983 59.200001
48.740032 42.400002 64.000000
48.799999 42.400002 64.059471
48.799999 42.065338 64.400002
48.799999 42.772972 58.000000
48.799999 42.799999 57.972980
48.799999 42.773102 58.400002
48.799999 42.799999 63.261097
48.799999 42.458961 63.600002
48.799999 42.459625 64.000000
48.426517 43.200001 57.200001
48.799999 43.200001 57.574047
48.799999 43.173843 57.600002
48.799999 43.200001 62.461117
48.799999 42.862289 62.799999
48.799999 42.860840 63.200001
48.799999 43.573681 56.799999
48.799999 43.600002 56.773884
48.799999 43.573971 57.200001
48.738068 43.600002 62.000000
48.799999 43.600002 62.062164
48.799999 43.261181 62.400002
48.424198 44.000000 56.000000
48.799999 44.000000 56.376476
48.799999 43.976555 56.400002
48.799999 44.000000 61.263367
48.799999 43.662560 61.600002
48.799999 43.662292 62.000000
48.799999 44.371677 55.600002
48.799999 44.400002 55.571522
48.799999 44.370995 56.000000
48.734814 44.400002 60.799999
48.799999 44.400002 60.864624
48.799999 44.062958 61.200001
48.799999 44.577271 50.400002
48.799999 44.799999 50.384319
48.762928 44.799999 50.799999
48.799999 44.799999 50.746243
48.426540 44.799999 51.200001
48.799999 44.771042 54.799999
48.799999 44.799999 54.771065
48.799999 44.772144 55.200001
48.799999 44.799999 60.060230
48.799999 44.462948 60.400002
48.799999 44.464870 60.799999
48.775887 45.200001 50.400002
48.799999 45.200001 50.375881
48.799999 44.836933 50.799999
48.799999 45.172646 51.200001
48.799999 45.200001 51.227394
48.426682 45.200001 54.000000
48.799999 45.200001 54.372749
48.799999 45.172848 54.400002
48.799999 45.200001 59.259808
48.799999 44.860710 59.600002
48.799999 44.859947 60.000000
48.799999 45.224102 50.400002
48.799999 45.600002 50.775845
48.427208 45.600002 51.600002
48.799999 45.600002 51.226788
48.799999 45.574203 53.600002
48.799999 45.600002 53.574207
48.799999 45.573299 54.000000
48.737534 45.600002 58.799999
48.799999 45.600002 58.862556
48.799999 45.260052 59.200001
48.776169 46.000000 50.799999
48.799999 46.000000 50.776203
48.799999 45.972626 51.600002
48.799999 46.000000 51.628353
48.428928 46.000000 52.799999
48.799999 46.000000 53.172791
48.799999 45.972805 53.200001
48.799999 46.000000 58.061329
48.799999 45.663857 58.400002
48.799999 45.662445 58.799999
48.799999 46.023792 50.799999
48.799999 46.400002 51.176025
48.531586 46.400002 52.000000
48.799999 46.400002 51.633553
48.799999 46.400002 52.381641
48.799999 46.386856 52.400002
48.799999 46.373257 52.799999
48.799999 46.400002 57.263142
48.799999 46.061699 57.600002
48.799999 46.061279 58.000000
48.775719 46.799999 51.200001
48.799999 46.799999 51.175701
48.799999 46.667950 52.000000
48.737728 46.799999 56.799999
48.799999 46.799999 56.862892
48.799999 46.463108 57.200001
48.799999 46.824245 51.200001
48.799999 47.200001 51.575989
48.692913 47.200001 52.400002
48.799999 47.200001 52.741634
48.799999 47.193245 52.799999
48.799999 47.200001 52.802948
48.799999 47.200001 56.062622
48.799999 46.859062 56.400002
48.799999 46.862537 56.799999
48.770927 47.600002 51.600002
48.799999 47.600002 51.570934
48.799999 47.600002 52.290119
48.652626 47.600002 52.400002
48.799999 47.312740 52.400002
48.799999 47.600002 52.492043
48.667934 47.231194 52.727692
48.799999 47.207859 52.799999
48.736431 47.600002 55.600002
48.799999 47.600002 55.664162
48.799999 47.262901 56.000000
48.799999 47.629070 51.600002
48.799999 48.000000 51.960022
48.799999 47.775162 52.400002
48.799999 48.000000 54.864498
48.799999 47.663113 55.200001
48.799999 47.664047 55.600002
48.759918 48.400002 52.000000
48.799999 48.400002 51.959957
48.799999 48.400002 54.066406
48.799999 48.067669 54.400002
48.799999 48.064663 54.799999
48.799999 48.440037 52.000000
48.522587 48.799999 52.400002
48.799999 48.799999 52.370632
48.712246 48.799999 53.600002
48.799999 48.799999 53.664906
48.799999 48.466305 54.000000
48.775555 49.200001 52.400002
48.799999 49.200001 52.375576
48.799999 49.200001 53.253143
48.799999 48.886681 53.600002
48.799999 49.224438 52.400002
48.799999 49.600002 52.776012
48.428829 49.600002 53.600002
48.799999 49.600002 53.228893
48.776333 50.000000 52.799999
48.799999 50.000000 52.776295
48.799999 49.967686 53.600002
48.799999 50.000000 53.630764
48.799999 50.023663 52.799999
48.799999 50.400002 53.175976
48.426125 50.400002 54.000000
48.799999 50.400002 53.629772
48.775944 50.799999 53.200001
48.799999 50.799999 53.175964
48.799999 50.771114 54.000000
48.799999 50.799999 54.029018
48.799999 50.824055 53.200001
48.799999 51.200001 53.575989
48.428543 51.200001 54.400002
48.799999 51.200001 54.026558
48.775894 51.600002 53.600002
48.799999 51.600002 53.575897
48.799999 51.570995 54.400002
48.799999 51.600002 54.429066
48.799999 51.624157 53.600002
48.799999 52.000000 53.975666
48.428875 52.000000 54.799999
48.799999 52.000000 54.427254
48.775723 52.400002 54.000000
48.799999 52.400002 53.975704
48.799999 52.371296 54.799999
48.799999 52.400002 54.828529
48.799999 52.424294 54.000000
48.799999 52.799999 54.375610
48.427689 52.799999 55.200001
48.799999 52.799999 54.829750
48.775738 53.200001 54.400002
48.799999 53.200001 54.375740
48.799999 53.171051 55.200001
48.799999 53.200001 55.228981
48.799999 53.224239 54.400002
48.799999 53.600002 54.776119
48.573639 53.600002 55.200001
48.799999 53.600002 55.228970
48.785221 54.000000 54.799999
48.799999 54.000000 54.785187
48.799999 54.000000 55.137939
48.799999 53.832893 55.200001
48.799999 54.014332 54.799999
49.096416 36.000000 68.000000
49.200001 35.870869 68.000000
49.200001 36.000000 67.870422
49.097851 36.000000 68.400002
49.200001 35.897484 68.400002
49.200001 36.000000 68.501907
49.200001 36.214214 67.200005
49.200001 36.400002 67.014580
49.200001 36.226158 67.599998
49.096008 36.400002 68.000000
49.096241 36.400002 68.400002
49.200001 36.294918 68.800003
49.094891 36.400002 68.800003
49.057331 36.400002 69.200005
49.200001 36.294170 69.200005
49.200001 36.400002 69.343513
49.097202 36.799999 66.400002
49.098862 36.799999 66.800003
49.200001 36.799999 66.875938
49.046223 36.799999 68.800003
49.046909 36.799999 69.200005
49.200001 36.575069 69.599998
48.891857 36.799999 69.599998
49.200001 36.799999 69.909767
49.123684 37.200001 66.400002
49.168045 37.200001 66.800003
49.200001 37.167732 67.200005
49.167843 37.200001 67.200005
49.200001 37.200001 67.231689
48.890728 37.200001 69.200005
48.854427 37.200001 69.599998
49.200001 36.920010 70.000000
48.851074 37.200001 70.000000
49.200001 37.200001 70.192764
49.200001 37.297737 66.800003
49.200001 37.600002 66.726303
49.200001 37.298668 67.200005
49.008232 37.600002 69.599998
49.200001 37.600002 69.792580
49.200001 37.392971 70.000000
49.103348 38.000000 66.000000
49.096252 38.000000 66.400002
49.200001 38.000000 66.424057
49.200001 38.000000 69.047333
49.200001 37.846691 69.200005
49.200001 37.823475 69.599998
48.937138 38.400002 65.599998
49.200001 38.360794 65.599998
49.200001 38.400002 65.569420
49.200001 38.154369 66.000000
49.200001 38.023964 66.400002
49.050228 38.400002 68.400002
49.052269 38.400002 68.800003
49.200001 38.400002 68.868668
49.200001 38.769085 64.800003
49.200001 38.799999 64.768875
49.200001 38.770706 65.200005
48.892914 38.799999 68.400002
49.200001 38.799999 68.707397
49.200001 38.705936 68.800003
49.200001 39.170006 64.000000
49.200001 39.200001 63.970104
49.200001 39.167919 64.400002
48.828682 39.200001 68.000000
48.828236 39.200001 68.400002
49.200001 39.200001 68.791420
48.830784 39.600002 63.200001
49.200001 39.600002 63.570148
49.200001 39.570065 63.600002
49.200001 39.600002 67.992477
49.200001 39.588367 68.000000
49.200001 39.585758 68.400002
49.200001 39.973202 62.799999
49.200001 40.000000 62.773273
49.200001 39.973282 63.200001
48.809017 40.000000 67.200005
48.859482 40.000000 67.599998
49.200001 39.650902 68.000000
49.145664 40.000000 68.000000
49.200001 40.000000 68.061455
48.827404 40.400002 62.000000
49.200001 40.400002 62.367115
49.200001 40.367138 62.400002
49.200001 40.060894 67.599998
49.200001 40.400002 67.260216
49.200001 40.061279 68.000000
49.200001 40.770126 61.600002
49.200001 40.799999 61.570538
49.200001 40.771397 62.000000
49.137081 40.799999 66.800003
49.200001 40.799999 66.862648
49.200001 40.460533 67.200005
49.200001 41.171951 60.799999
49.200001 41.200001 60.771973
49.200001 41.170799 61.200001
49.200001 41.200001 66.058746
49.200001 40.860584 66.400002
49.200001 40.862877 66.800003
48.827694 41.600002 60.000000
49.200001 41.600002 60.373341
49.200001 41.573364 60.400002
49.200001 41.600002 65.260796
49.200001 41.263763 65.599998
49.200001 41.258862 66.000000
49.200001 41.971741 59.600002
49.200001 42.000000 59.571724
49.200001 41.971302 60.000000
49.139091 42.000000 64.800003
49.200001 42.000000 64.860443
49.200001 41.660080 65.200005
48.828815 42.400002 58.799999
49.200001 42.400002 59.171581
49.200001 42.371258 59.200001
49.200001 42.400002 64.060593
49.200001 42.062511 64.400002
49.200001 42.060574 64.800003
48.826889 42.799999 58.000000
49.200001 42.799999 58.372528
49.200001 42.772518 58.400002
49.200001 42.771938 58.799999
49.200001 42.799999 63.262928
49.200001 42.461853 63.600002
49.200001 42.460648 64.000000
49.200001 43.171276 57.600002
49.200001 43.200001 57.571053
49.200001 43.171814 58.000000
49.139744 43.200001 62.799999
49.200001 43.200001 62.860195
49.200001 42.863144 63.200001
48.826248 43.600002 56.799999
49.200001 43.600002 57.172283
49.200001 43.572189 57.200001
49.200001 43.600002 62.061535
49.200001 43.259563 62.400002
49.200001 43.260197 62.799999
49.200001 43.969002 56.400002
49.200001 44.000000 56.369270
49.200001 43.969261 56.799999
49.136562 44.000000 61.600002
49.200001 44.000000 61.663338
49.200001 43.661617 62.000000
49.200001 44.372894 55.600002
49.200001 44.400002 55.572704
49.200001 44.372379 56.000000
49.200001 44.400002 60.867298
49.200001 44.063683 61.200001
49.200001 44.063244 61.600002
49.200001 44.634823 50.400002
49.200001 44.799999 50.168228
49.200001 44.799999 50.747070
48.828934 44.799999 54.799999
49.200001 44.799999 55.172394
49.200001 44.772461 55.200001
49.200001 44.799999 60.061878
49.200001 44.462475 60.400002
49.200001 44.467289 60.799999
49.200001 45.200001 50.375755
49.200001 44.972515 50.799999
48.827293 45.200001 51.200001
49.200001 45.200001 50.825363
49.200001 45.173702 54.400002
49.200001 45.200001 54.373604
49.200001 45.172340 54.799999
49.138287 45.200001 59.600002
49.200001 45.200001 59.661713
49.200001 44.862148 60.000000
49.176098 45.600002 50.400002
49.200001 45.600002 50.376106
49.200001 45.572857 51.200001
49.200001 45.600002 51.227058
48.825840 45.600002 53.600002
49.200001 45.600002 53.973682
49.200001 45.573730 54.000000
49.200001 45.600002 58.862324
49.200001 45.260143 59.200001
49.200001 45.261745 59.600002
49.200001 45.623886 50.400002
49.200001 46.000000 50.776089
48.828346 46.000000 51.600002
49.200001 46.000000 51.228443
49.200001 45.970436 53.200001
49.200001 46.000000 53.170498
49.200001 45.972050 53.600002
49.200001 46.000000 58.063129
49.200001 45.663994 58.400002
49.200001 45.662579 58.799999
49.176228 46.400002 50.799999
49.200001 46.400002 50.776203
49.200001 46.373096 51.600002
49.200001 46.400002 51.636532
49.200001 46.371243 52.400002
49.200001 46.400002 52.360725
49.200001 46.370800 52.799999
49.139385 46.400002 57.600002
49.200001 46.400002 57.660206
49.200001 46.062946 58.000000
49.200001 46.423775 50.799999
49.200001 46.799999 51.175697
49.200001 46.771877 52.000000
49.200001 46.799999 56.862190
49.200001 46.461578 57.200001
49.200001 46.460556 57.600002
49.175449 47.200001 51.200001
49.200001 47.200001 51.175465
48.804073 47.200001 52.799999
49.139084 47.200001 56.400002
49.200001 47.200001 56.460857
49.200001 46.862026 56.799999
49.200001 47.224564 51.200001
49.200001 47.600002 51.570984
49.095573 47.600002 52.000000
49.200001 47.600002 51.875824
49.200001 47.308464 52.000000
49.200001 47.381596 52.400002
49.200001 47.600002 52.424740
49.200001 47.600002 55.663952
49.200001 47.263298 56.000000
49.200001 47.260742 56.400002
49.163738 48.000000 51.600002
49.200001 48.000000 51.563728
49.200001 47.704350 52.000000
48.983257 48.000000 52.400002
49.200001 48.000000 52.254059
49.200001 48.000000 52.555458
49.200001 48.000000 54.868359
49.200001 47.663113 55.200001
49.200001 47.664242 55.600002
49.200001 48.036320 51.600002
49.200001 48.400002 51.959820
49.038471 48.400002 52.400002
49.200001 48.400002 52.299255
49.200001 48.400002 52.796261
49.137634 48.400002 54.400002
49.200001 48.400002 54.462250
49.200001 48.068401 54.799999
49.179424 48.799999 52.000000
49.200001 48.799999 51.979420
49.200001 48.528694 52.400002
49.200001 48.799999 53.664886
49.200001 48.466423 54.000000
49.200001 48.462624 54.400002
49.200001 48.820583 52.000000
49.200001 49.071907 52.400002
49.054253 49.200001 52.400002
49.200001 49.200001 52.573757
49.200001 49.200001 53.238777
49.200001 48.865055 53.600002
49.200001 49.600002 52.376156
49.176117 49.600002 52.400002
49.200001 49.348007 52.400002
49.200001 49.600002 53.236561
49.200001 49.623875 52.400002
49.200001 50.000000 52.775982
48.830570 50.000000 53.600002
49.200001 50.000000 53.229961
49.175732 50.400002 52.799999
49.200001 50.400002 52.775684
49.200001 50.370468 53.600002
49.200001 50.400002 53.629555
49.200001 50.424313 52.799999
49.200001 50.799999 53.175819
48.828728 50.799999 54.000000
49.200001 50.799999 53.629658
49.175903 51.200001 53.200001
49.200001 51.200001 53.175880
49.200001 51.170868 54.000000
49.200001 51.200001 54.029018
49.200001 51.224102 53.200001
49.200001 51.600002 53.576015
48.829250 51.600002 54.400002
49.200001 51.600002 54.029095
49.175766 52.000000 53.600002
49.200001 52.000000 53.575817
49.200001 51.969021 54.400002
49.200001 52.000000 54.431141
49.200001 52.024170 53.600002
49.200001 52.400002 53.975941
48.828709 52.400002 54.799999
49.200001 52.400002 54.429302
49.175724 52.799999 54.000000
49.200001 52.799999 53.975739
49.200001 52.772030 54.799999
49.200001 52.799999 54.827942
49.200001 52.824261 54.000000
49.200001 53.200001 54.375740
48.828880 53.200001 55.200001
49.200001 53.200001 54.827576
49.176090 53.600002 54.400002
49.200001 53.600002 54.376106
49.200001 53.572506 55.200001
49.200001 53.600002 55.227486
49.200001 53.623890 54.400002
49.200001 54.000000 54.784760
49.200001 54.000000 55.142910
49.200001 53.834454 55.200001
49.185261 54.400002 54.799999
49.200001 54.400002 54.784786
49.200001 54.400002 54.952290
49.200001 54.414795 54.799999
49.498531 35.600002 68.800003
49.600002 35.472832 68.800003
49.600002 35.600002 68.672935
49.499485 35.600002 69.200005
49.600002 35.497963 69.200005
49.600002 35.600002 69.300865
49.600002 35.813320 68.000000
49.600002 36.000000 67.813133
49.600002 35.825695 68.400002
49.495434 36.000000 68.800003
49.495464 36.000000 69.200005
49.600002 35.895744 69.599998
49.494781 36.000000 69.599998
49.458698 36.000000 70.000000
49.600002 35.896835 70.000000
49.600002 36.000000 70.139198
49.495708 36.400002 67.200005
49.496212 36.400002 67.599998
49.600002 36.400002 67.676933
49.446346 36.400002 69.599998
49.447006 36.400002 70.000000
49.600002 36.179371 70.400002
49.291706 36.400002 70.400002
49.600002 36.400002 70.701378
49.523655 36.799999 67.200005
49.567120 36.799999 67.599998
49.600002 36.770618 68.000000
49.570614 36.799999 68.000000
49.600002 36.799999 68.029419
49.291306 36.799999 70.000000
49.248669 36.799999 70.400002
49.600002 36.535458 70.800003
49.247921 36.799999 70.800003
49.600002 36.799999 70.978432
49.600002 36.900753 67.599998
49.600002 37.200001 67.526169
49.600002 36.893456 68.000000
49.409119 37.200001 70.400002
49.600002 37.200001 70.583542
49.600002 36.977978 70.800003
49.514774 37.600002 66.800003
49.508987 37.600002 67.200005
49.600002 37.600002 67.221992
49.600002 37.600002 69.852203
49.600002 37.451202 70.000000
49.600002 37.421047 70.400002
49.363194 38.000000 66.400002
49.600002 37.961613 66.400002
49.600002 38.000000 66.370262
49.600002 37.750576 66.800003
49.600002 37.622215 67.200005
49.460178 38.000000 69.200005
49.454765 38.000000 69.599998
49.600002 38.000000 69.668594
49.600002 38.370373 65.599998
49.600002 38.400002 65.570335
49.600002 38.369499 66.000000
49.533375 38.400002 69.200005
49.600002 38.400002 69.498718
49.600002 38.301117 69.599998
49.600002 38.770977 64.800003
49.600002 38.799999 64.771141
49.600002 38.770535 65.200005
49.228172 38.799999 68.800003
49.229641 38.799999 69.200005
49.600002 38.799999 69.588089
49.229641 39.200001 64.000000
49.600002 39.200001 64.374153
49.600002 39.174053 64.400002
49.208584 39.200001 68.800003
49.600002 39.200001 69.190819
49.600002 39.190804 69.200005
49.600002 39.570839 63.600002
49.600002 39.600002 63.570667
49.600002 39.572594 64.000000
49.207546 39.600002 68.000000
49.265644 39.600002 68.400002
49.546444 39.600002 68.800003
49.600002 39.600002 68.860435
49.226597 40.000000 62.799999
49.600002 40.000000 63.172009
49.600002 39.971882 63.200001
49.600002 39.656704 68.400002
49.600002 40.000000 68.062141
49.600002 39.660381 68.800003
49.600002 40.371250 62.400002
49.600002 40.400002 62.371105
49.600002 40.370922 62.799999
49.540539 40.400002 67.599998
49.600002 40.400002 67.659653
49.600002 40.061947 68.000000
49.600002 40.772209 61.600002
49.600002 40.799999 61.572418
49.600002 40.768768 62.000000
49.600002 40.799999 66.861107
49.600002 40.458553 67.200005
49.600002 40.459675 67.599998
49.227917 41.200001 60.799999
49.600002 41.200001 61.169350
49.600002 41.169430 61.200001
49.600002 41.200001 66.059006
49.600002 40.860237 66.400002
49.600002 40.860996 66.800003
49.600002 41.570148 60.400002
49.600002 41.600002 60.370113
49.600002 41.570213 60.799999
49.537716 41.600002 65.599998
49.600002 41.600002 65.662041
49.600002 41.259037 66.000000
49.228226 42.000000 59.600002
49.600002 42.000000 59.968945
49.600002 41.968979 60.000000
49.600002 42.000000 64.861389
49.600002 41.658348 65.200005
49.600002 41.661610 65.599998
49.600002 42.369419 59.200001
49.600002 42.400002 59.169369
49.600002 42.372425 59.600002
49.600002 42.400002 64.063065
49.600002 42.060673 64.400002
49.600002 42.061726 64.800003
49.600002 42.769638 58.400002
49.600002 42.799999 58.369545
49.600002 42.771568 58.799999
49.534519 42.799999 63.600002
49.600002 42.799999 63.665638
49.600002 42.463039 64.000000
49.228714 43.200001 57.600002
49.600002 43.200001 57.969734
49.600002 43.169434 58.000000
49.600002 43.200001 62.862873
49.600002 42.865528 63.200001
49.600002 42.865776 63.600002
49.600002 43.570309 57.200001
49.600002 43.600002 57.170418
49.600002 43.569164 57.600002
49.540157 43.600002 62.400002
49.600002 43.600002 62.459591
49.600002 43.262661 62.799999
49.600002 43.970291 56.400002
49.600002 44.000000 56.370312
49.600002 43.969727 56.799999
49.600002 44.000000 61.665310
49.600002 43.659698 62.000000
49.600002 43.659740 62.400002
49.227211 44.400002 55.600002
49.600002 44.400002 55.972042
49.600002 44.372009 56.000000
49.600002 44.400002 60.861477
49.600002 44.066639 61.200001
49.600002 44.064995 61.600002
49.360142 44.799999 50.400002
49.600002 44.773647 55.200001
49.600002 44.799999 55.173622
49.600002 44.774048 55.600002
49.538071 44.799999 60.400002
49.600002 44.799999 60.461884
49.600002 44.461437 60.799999
49.584259 45.200001 50.000000
49.600002 44.987499 50.000000
49.600002 45.200001 49.984676
49.600002 45.046169 50.400002
49.600002 45.172321 50.799999
49.600002 45.200001 50.827740
49.226223 45.200001 54.400002
49.600002 45.200001 54.772858
49.600002 45.172764 54.799999
49.600002 45.200001 59.659565
49.600002 44.860222 60.000000
49.600002 44.862144 60.400002
49.600002 45.215725 50.000000
49.600002 45.600002 50.376175
49.227352 45.600002 51.200001
49.600002 45.600002 50.828350
49.600002 45.574463 54.000000
49.600002 45.600002 53.974323
49.600002 45.574646 54.400002
49.600002 45.600002 58.861248
49.600002 45.260288 59.200001
49.600002 45.259319 59.600002
49.576031 46.000000 50.400002
49.600002 46.000000 50.376038
49.600002 45.972435 51.200001
49.600002 46.000000 51.228664
49.600002 45.969513 53.200001
49.600002 46.000000 53.169666
49.600002 45.970928 53.600002
49.539944 46.000000 58.400002
49.600002 46.000000 58.459972
49.600002 45.661266 58.799999
49.600002 46.024010 50.400002
49.600002 46.400002 50.775875
49.226463 46.400002 51.600002
49.600002 46.400002 51.223022
49.228580 46.400002 52.400002
49.600002 46.400002 52.770813
49.600002 46.371078 52.799999
49.600002 46.400002 57.663174
49.600002 46.060268 58.000000
49.600002 46.060055 58.400002
49.576073 46.799999 50.799999
49.600002 46.799999 50.776085
49.600002 46.779900 51.600002
49.600002 46.770592 52.000000
49.600002 46.770367 52.400002
49.541389 46.799999 57.200001
49.600002 46.799999 57.258209
49.600002 46.463043 57.600002
49.600002 46.823956 50.799999
49.600002 47.200001 51.175793
49.596966 47.200001 52.799999
49.600002 47.200001 52.795010
49.600002 47.194981 52.799999
49.600002 47.200001 52.802601
49.600002 47.200001 56.460571
49.600002 46.861164 56.799999
49.600002 46.858498 57.200001
49.575802 47.600002 51.200001
49.600002 47.600002 51.175808
49.487972 47.600002 52.000000
49.600002 47.600002 52.031887
49.600002 47.393879 52.400002
49.597576 47.600002 52.799999
49.600002 47.600002 52.802113
49.600002 47.600002 55.660717
49.600002 47.260979 56.000000
49.600002 47.260052 56.400002
49.600002 47.624187 51.200001
49.600002 48.000000 51.562756
49.281181 48.000000 52.400002
49.600002 47.765076 52.400002
49.600002 47.608929 52.799999
49.537331 48.000000 55.200001
49.600002 48.000000 55.262764
49.600002 47.661098 55.600002
49.559864 48.400002 51.600002
49.600002 48.400002 51.559864
49.297913 48.400002 52.400002
49.600002 48.400002 54.467865
49.600002 48.062710 54.799999
49.600002 48.062527 55.200001
49.600002 48.440136 51.600002
49.600002 48.799999 51.968079
49.531342 48.799999 54.000000
49.600002 48.799999 54.068581
49.600002 48.467731 54.400002
49.583866 49.200001 52.000000
49.600002 49.200001 51.983887
49.388187 49.200001 52.400002
49.600002 49.200001 53.248390
49.600002 48.866207 53.600002
49.600002 48.868458 54.000000
49.600002 49.216103 52.000000
49.600002 49.600002 52.375710
49.252468 49.600002 53.200001
49.600002 49.600002 52.856018
49.600002 49.266476 53.200001
49.575745 50.000000 52.400002
49.600002 50.000000 52.375759
49.600002 49.954296 53.200001
49.600002 50.000000 53.231770
49.600002 50.024250 52.400002
49.600002 50.400002 52.775967
49.229698 50.400002 53.600002
49.600002 50.400002 53.230598
49.575882 50.799999 52.799999
49.600002 50.799999 52.775879
49.600002 50.770123 53.600002
49.600002 50.799999 53.629818
49.600002 50.824135 52.799999
49.600002 51.200001 53.175861
49.229202 51.200001 54.000000
49.600002 51.200001 53.627743
49.575844 51.600002 53.200001
49.600002 51.600002 53.175842
49.600002 51.571724 54.000000
49.600002 51.600002 54.028168
49.600002 51.624157 53.200001
49.600002 52.000000 53.575893
49.230984 52.000000 54.400002
49.600002 52.000000 54.027279
49.575897 52.400002 53.600002
49.600002 52.400002 53.575874
49.600002 52.370644 54.400002
49.600002 52.400002 54.429211
49.600002 52.424129 53.600002
49.600002 52.799999 53.975861
49.227936 52.799999 54.799999
49.600002 52.799999 54.428860
49.576107 53.200001 54.000000
49.600002 53.200001 53.976116
49.600002 53.172421 54.799999
49.600002 53.200001 54.827541
49.600002 53.223888 54.000000
49.600002 53.600002 54.376129
49.227531 53.600002 55.200001
49.600002 53.600002 54.827606
49.576103 54.000000 54.400002
49.600002 54.000000 54.376099
49.600002 54.000000 55.036285
49.600002 54.023861 54.400002
49.600002 54.400002 54.784454
49.600002 54.400002 54.954861
49.600002 54.612026 54.799999
49.897945 35.200001 69.599998
50.000000 35.070141 69.599998
50.000000 35.200001 69.472679
49.894985 35.200001 70.000000
50.000000 35.094830 70.000000
50.000000 35.200001 70.105278
50.000000 35.425888 68.800003
50.000000 35.600002 68.612915
50.000000 35.426052 69.200005
49.895592 35.600002 69.599998
49.895443 35.600002 70.000000
50.000000 35.495579 70.400002
49.895012 35.600002 70.400002
49.860241 35.600002 70.800003
50.000000 35.497066 70.800003
50.000000 35.600002 70.938354
49.899300 36.000000 68.000000
49.898815 36.000000 68.400002
50.000000 36.000000 68.475754
49.848930 36.000000 70.400002
49.848839 36.000000 70.800003
50.000000 35.781319 71.200005
49.698879 36.000000 71.200005
50.000000 36.000000 71.502769
49.924660 36.400002 68.000000
49.971889 36.400002 68.400002
50.000000 36.371685 68.800003
49.971783 36.400002 68.800003
50.000000 36.400002 68.828186
49.699200 36.400002 70.800003
49.670368 36.400002 71.200005
50.000000 36.132961 71.599998
49.659496 36.400002 71.599998
50.000000 36.400002 71.781548
50.000000 36.493843 68.400002
50.000000 36.799999 68.330429
50.000000 36.491550 68.800003
49.822716 36.799999 71.200005
50.000000 36.799999 71.378990
50.000000 36.579945 71.599998
49.916546 37.200001 67.599998
49.908680 37.200001 68.000000
50.000000 37.200001 68.021591
50.000000 37.200001 70.647270
50.000000 37.047909 70.800003
50.000000 37.011974 71.200005
49.757412 37.600002 67.200005
50.000000 37.562492 67.200005
50.000000 37.600002 67.170815
50.000000 37.341595 67.599998
50.000000 37.221416 68.000000
49.716045 37.600002 70.000000
49.854465 37.600002 70.400002
50.000000 37.600002 70.468544
50.000000 37.971836 66.400002
50.000000 38.000000 66.372017
50.000000 37.971889 66.800003
49.929497 38.000000 70.000000
50.000000 38.000000 70.303497
50.000000 37.901997 70.400002
49.629360 38.400002 65.599998
50.000000 38.400002 65.972191
50.000000 38.372028 66.000000
49.629765 38.400002 69.599998
49.629772 38.400002 70.000000
50.000000 38.400002 70.238266
49.628998 38.799999 64.800003
50.000000 38.799999 65.172768
50.000000 38.772747 65.200005
50.000000 38.772884 65.599998
49.611889 38.799999 69.599998
50.000000 38.799999 69.991646
50.000000 38.791641 70.000000
50.000000 39.167233 64.400002
50.000000 39.200001 64.367424
50.000000 39.167305 64.800003
49.640942 39.200001 69.200005
49.945137 39.200001 69.599998
50.000000 39.200001 69.661758
49.629414 39.600002 63.600002
50.000000 39.600002 63.970428
50.000000 39.570545 64.000000
50.000000 39.600002 68.860092
50.000000 39.261337 69.200005
50.000000 39.261860 69.599998
50.000000 39.969208 63.200001
50.000000 40.000000 63.169231
50.000000 39.969746 63.600002
49.941769 40.000000 68.400002
50.000000 40.000000 68.458298
50.000000 39.660107 68.800003
50.000000 40.369652 62.400002
50.000000 40.400002 62.369556
50.000000 40.370724 62.799999
50.000000 40.400002 67.661690
50.000000 40.063915 68.000000
50.000000 40.058029 68.400002
49.627640 40.799999 61.600002
50.000000 40.799999 61.970284
50.000000 40.770050 62.000000
50.000000 40.799999 66.862007
50.000000 40.462589 67.200005
50.000000 40.461605 67.599998
50.000000 41.169727 61.200001
50.000000 41.200001 61.169697
50.000000 41.171421 61.600002
49.939079 41.200001 66.400002
50.000000 41.200001 66.460617
50.000000 40.861332 66.800003
49.629803 41.600002 60.400002
50.000000 41.600002 60.770863
50.000000 41.570877 60.799999
50.000000 41.600002 65.660988
50.000000 41.260174 66.000000
50.000000 41.260540 66.400002
50.000000 41.969246 60.000000
50.000000 42.000000 59.969227
50.000000 41.971245 60.400002
50.000000 42.000000 64.861870
50.000000 41.659374 65.200005
50.000000 41.660763 65.599998
50.000000 42.370316 59.200001
50.000000 42.400002 59.170113
50.000000 42.370022 59.600002
49.938396 42.400002 64.400002
50.000000 42.400002 64.461525
50.000000 42.062160 64.800003
49.630367 42.799999 58.400002
50.000000 42.799999 58.770741
50.000000 42.770748 58.799999
50.000000 42.799999 63.666607
50.000000 42.461437 64.000000
50.000000 42.461468 64.400002
50.000000 43.167595 58.000000
50.000000 43.200001 57.967632
50.000000 43.170280 58.400002
49.934574 43.200001 63.200001
50.000000 43.200001 63.265419
50.000000 42.866711 63.600002
50.000000 43.571560 57.200001
50.000000 43.600002 57.171612
50.000000 43.572552 57.600002
50.000000 43.600002 62.459930
50.000000 43.261574 62.799999
50.000000 43.265255 63.200001
49.629574 44.000000 56.400002
50.000000 44.000000 56.769611
50.000000 43.969692 56.799999
50.000000 44.000000 61.665722
50.000000 43.660961 62.000000
50.000000 43.659657 62.400002
50.000000 44.374516 56.000000
50.000000 44.400002 55.974377
50.000000 44.372608 56.400002
49.935596 44.400002 61.200001
50.000000 44.400002 61.264523
50.000000 44.065907 61.600002
49.626251 44.799999 55.200001
50.000000 44.799999 55.574707
50.000000 44.774681 55.600002
50.000000 44.799999 60.458981
50.000000 44.460552 60.799999
50.000000 44.464207 61.200001
50.000000 44.981991 50.000000
50.000000 45.200001 49.984779
49.938469 45.200001 50.400002
50.000000 45.200001 50.339474
49.627319 45.200001 50.799999
50.000000 45.172501 54.799999
50.000000 45.200001 54.772614
50.000000 45.172253 55.200001
49.937618 45.200001 60.000000
50.000000 45.200001 60.061878
50.000000 44.859280 60.400002
49.983612 45.600002 50.000000
50.000000 45.600002 49.983608
50.000000 45.240467 50.400002
50.000000 45.575996 50.799999
50.000000 45.600002 50.823948
50.000000 45.575008 54.000000
50.000000 45.600002 53.974915
50.000000 45.574780 54.400002
49.937851 45.600002 59.200001
50.000000 45.600002 59.262062
50.000000 45.264668 59.600002
50.000000 45.262184 60.000000
50.000000 45.616428 50.000000
50.000000 46.000000 50.375984
49.626949 46.000000 51.200001
50.000000 46.000000 50.826313
49.630489 46.000000 53.200001
50.000000 46.000000 53.570324
50.000000 45.970493 53.600002
50.000000 46.000000 58.461708
50.000000 45.662277 58.799999
50.000000 45.662277 59.200001
49.976128 46.400002 50.400002
50.000000 46.400002 50.376110
50.000000 46.372475 51.200001
50.000000 46.400002 51.228577
50.000000 46.368919 52.799999
50.000000 46.400002 52.768269
50.000000 46.373318 53.200001
49.937374 46.400002 58.000000
50.000000 46.400002 58.062538
50.000000 46.061508 58.400002
50.000000 46.423901 50.400002
50.000000 46.799999 50.776024
49.627598 46.799999 51.600002
50.000000 46.799999 51.238911
50.000000 46.799999 51.962463
50.000000 46.772308 52.000000
50.000000 46.765583 52.400002
50.000000 46.799999 57.257015
50.000000 46.463028 57.600002
50.000000 46.462669 58.000000
49.975994 47.200001 50.799999
50.000000 47.200001 50.776039
50.000000 47.069225 51.600002
49.604973 47.200001 52.799999
50.000000 47.200001 56.461975
50.000000 46.861153 56.799999
50.000000 46.857216 57.200001
50.000000 47.223953 50.799999
50.000000 47.600002 51.176033
49.759136 47.600002 52.400002
49.603119 47.600002 52.799999
49.941185 47.600002 56.000000
50.000000 47.600002 56.058594
50.000000 47.261646 56.400002
49.969234 48.000000 51.200001
50.000000 48.000000 51.169254
50.000000 48.000000 55.263752
50.000000 47.662899 55.600002
50.000000 47.658974 56.000000
50.000000 48.030827 51.200001
50.000000 48.400002 51.562569
49.938824 48.400002 54.799999
50.000000 48.400002 54.861145
50.000000 48.063896 55.200001
49.959942 48.799999 51.600002
50.000000 48.799999 51.559956
50.000000 48.799999 54.062599
50.000000 48.462971 54.400002
50.000000 48.461426 54.799999
50.000000 48.840012 51.600002
50.000000 49.200001 51.969501
50.000000 49.200001 53.261982
50.000000 48.866158 53.600002
50.000000 48.861835 54.000000
49.969517 49.600002 52.000000
50.000000 49.600002 51.969501
50.000000 49.600002 52.947674
50.000000 49.284054 53.200001
50.000000 49.630535 52.000000
50.000000 50.000000 52.375713
49.631618 50.000000 53.200001
50.000000 50.000000 52.836639
49.976170 50.400002 52.400002
50.000000 50.400002 52.376118
50.000000 50.370945 53.200001
50.000000 50.400002 53.227425
50.000000 50.423820 52.400002
50.000000 50.799999 52.775948
49.629620 50.799999 53.600002
50.000000 50.799999 53.227760
49.975780 51.200001 52.799999
50.000000 51.200001 52.775784
50.000000 51.171242 53.600002
50.000000 51.200001 53.628811
50.000000 51.224209 52.799999
50.000000 51.600002 53.175842
49.628323 51.600002 54.000000
50.000000 51.600002 53.629314
49.976059 52.000000 53.200001
50.000000 52.000000 53.176056
50.000000 51.972378 54.000000
50.000000 52.000000 54.027504
50.000000 52.023945 53.200001
50.000000 52.400002 53.575924
49.629398 52.400002 54.400002
50.000000 52.400002 54.029552
49.975639 52.799999 53.600002
50.000000 52.799999 53.575630
50.000000 52.771820 54.400002
50.000000 52.799999 54.428051
50.000000 52.824310 53.600002
50.000000 53.200001 53.976101
49.627514 53.200001 54.799999
50.000000 53.200001 54.428505
49.976101 53.600002 54.000000
50.000000 53.600002 53.976086
50.000000 53.572811 54.799999
50.000000 53.600002 54.827229
50.000000 53.623909 54.000000
50.000000 54.000000 54.376167
50.000000 54.000000 54.826363
49.985035 54.400002 54.400002
50.000000 54.400002 54.385010
50.000000 54.224464 54.799999
50.000000 54.400002 54.739315
49.941319 54.400002 54.799999
50.000000 54.414974 54.400002
50.298260 34.799999 70.400002
50.400002 34.671246 70.400002
50.400002 34.799999 70.271538
50.298203 34.799999 70.800003
50.400002 34.697693 70.800003
50.400002 34.799999 70.903343
50.400002 35.023407 69.599998
50.400002 35.200001 69.411964
50.400002 35.026096 70.000000
50.294552 35.200001 70.400002
50.298183 35.200001 70.800003
50.400002 35.095078 71.200005
50.295498 35.200001 71.200005
50.258816 35.200001 71.599998
50.400002 35.091930 71.599998
50.400002 35.200001 71.745796
50.295895 35.600002 68.800003
50.295761 35.600002 69.200005
50.400002 35.600002 69.278770
50.250988 35.600002 71.200005
50.250706 35.600002 71.599998
50.400002 35.374775 72.000000
50.092175 35.600002 72.000000
50.400002 35.600002 72.310173
50.322586 36.000000 68.800003
50.368084 36.000000 69.200005
50.400002 35.974640 69.599998
50.375031 36.000000 69.599998
50.400002 36.000000 69.625206
50.310726 36.000000 70.800003
50.400002 36.000000 70.750542
50.400002 35.901005 70.800003
50.400002 35.811035 71.200005
50.277630 36.000000 71.200005
50.400002 36.000000 71.322174
50.097061 36.000000 71.599998
50.056183 36.000000 72.000000
50.400002 35.721310 72.400002
50.053982 36.000000 72.400002
50.400002 36.000000 72.586815
50.400002 36.103649 69.200005
50.400002 36.400002 69.130638
50.400002 36.085678 69.599998
50.400002 36.058689 70.800003
50.400002 36.160156 71.200005
50.216663 36.400002 72.000000
50.400002 36.400002 72.183517
50.400002 36.186108 72.400002
50.302574 36.799999 68.400002
50.304928 36.799999 68.800003
50.400002 36.799999 68.822441
50.400002 36.799999 71.449394
50.400002 36.652115 71.599998
50.400002 36.622623 72.000000
50.158054 37.200001 68.000000
50.400002 37.163357 68.000000
50.400002 37.200001 67.971657
50.400002 36.951569 68.400002
50.400002 36.822475 68.800003
50.120342 37.200001 70.800003
50.256908 37.200001 71.200005
50.400002 37.200001 71.268845
50.400002 37.571308 67.200005
50.400002 37.600002 67.171318
50.400002 37.569527 67.599998
50.330940 37.600002 70.800003
50.400002 37.600002 71.103661
50.400002 37.502781 71.200005
50.027920 38.000000 66.400002
50.400002 38.000000 66.773819
50.400002 37.973663 66.800003
50.029896 38.000000 70.400002
50.031338 38.000000 70.800003
50.400002 38.000000 71.039330
50.400002 38.371601 66.000000
50.400002 38.400002 65.971428
50.400002 38.372456 66.400002
50.161942 38.400002 70.400002
50.400002 38.400002 70.781349
50.400002 38.381329 70.800003
50.400002 38.772049 65.200005
50.400002 38.799999 65.172081
50.400002 38.771591 65.599998
50.036171 38.799999 70.000000
50.346813 38.799999 70.400002
50.400002 38.799999 70.452927
50.032627 39.200001 64.400002
50.400002 39.200001 64.768509
50.400002 39.168438 64.800003
50.400002 39.200001 69.660881
50.400002 38.863708 70.000000
50.400002 38.859844 70.400002
50.400002 39.570873 64.000000
50.400002 39.600002 63.970730
50.400002 39.572014 64.400002
50.338360 39.600002 69.200005
50.400002 39.600002 69.261749
50.400002 39.260811 69.599998
50.400002 39.969997 63.200001
50.400002 40.000000 63.170063
50.400002 39.971294 63.600002
50.400002 40.000000 68.457825
50.400002 39.660713 68.800003
50.400002 39.661404 69.200005
50.030350 40.400002 62.400002
50.400002 40.400002 62.770222
50.400002 40.370163 62.799999
50.400002 40.400002 67.664871
50.400002 40.057865 68.000000
50.400002 40.057949 68.400002
50.400002 40.769375 62.000000
50.400002 40.799999 61.969429
50.400002 40.768734 62.400002
50.338020 40.799999 67.200005
50.400002 40.799999 67.261803
50.400002 40.464703 67.599998
50.030281 41.200001 61.200001
50.400002 41.200001 61.567410
50.400002 41.167309 61.600002
50.400002 41.200001 66.462082
50.400002 40.860138 66.800003
50.400002 40.861900 67.200005
50.400002 41.571873 60.799999
50.400002 41.600002 60.771870
50.400002 41.570469 61.200001
50.338985 41.600002 66.000000
50.400002 41.600002 66.060837
50.400002 41.261852 66.400002
50.400002 41.967262 60.000000
50.400002 42.000000 59.967163
50.400002 41.971279 60.400002
50.341034 42.000000 65.200005
50.400002 42.000000 65.258965
50.400002 41.661324 65.599998
50.400002 41.660522 66.000000
50.029705 42.400002 59.200001
50.400002 42.400002 59.567074
50.400002 42.367062 59.600002
50.400002 42.400002 64.462143
50.400002 42.062378 64.800003
50.400002 42.059456 65.200005
50.400002 42.773846 58.799999
50.400002 42.799999 58.773617
50.400002 42.772957 59.200001
50.340099 42.799999 64.000000
50.400002 42.799999 64.059715
50.400002 42.461823 64.400002
50.400002 43.169338 58.000000
50.400002 43.200001 57.969448
50.400002 43.172009 58.400002
50.400002 43.200001 63.264240
50.400002 42.861851 63.600002
50.400002 42.859844 64.000000
50.028503 43.600002 57.200001
50.400002 43.600002 57.572689
50.400002 43.572735 57.600002
50.400002 43.600002 62.462086
50.400002 43.262756 62.799999
50.400002 43.263969 63.200001
50.400002 43.970314 56.799999
50.400002 44.000000 56.770168
50.400002 43.970730 57.200001
50.336483 44.000000 62.000000
50.400002 44.000000 62.063351
50.400002 43.661663 62.400002
50.025539 44.400002 56.000000
50.400002 44.400002 56.374054
50.400002 44.373993 56.400002
50.400002 44.400002 61.263863
50.400002 44.064651 61.600002
50.400002 44.063602 62.000000
50.400002 44.772907 55.600002
50.400002 44.799999 55.572723
50.400002 44.772869 56.000000
50.338234 44.799999 60.799999
50.400002 44.799999 60.861897
50.400002 44.463673 61.200001
50.217884 45.200001 50.000000
50.400002 45.173122 54.799999
50.400002 45.200001 54.772980
50.400002 45.172081 55.200001
50.400002 45.200001 60.063274
50.400002 44.862274 60.400002
50.400002 44.861828 60.799999
50.400002 45.381374 50.000000
50.400002 45.600002 49.984112
50.400002 45.346596 50.400002
50.024265 45.600002 50.799999
50.400002 45.600002 50.427708
50.025078 45.600002 54.000000
50.400002 45.600002 54.372864
50.400002 45.572979 54.400002
50.400002 45.600002 59.260357
50.400002 45.262486 59.600002
50.400002 45.263397 60.000000
50.375637 46.000000 50.000000
50.400002 46.000000 49.975616
50.400002 45.975731 50.799999
50.400002 46.000000 50.824089
50.400002 45.972912 53.600002
50.400002 46.000000 53.573269
50.400002 45.972210 54.000000
50.338970 46.000000 58.799999
50.400002 46.000000 58.860706
50.400002 45.660194 59.200001
50.400002 46.024376 50.000000
50.400002 46.400002 50.375668
50.027626 46.400002 51.200001
50.400002 46.400002 50.822216
50.400002 46.367958 52.799999
50.400002 46.400002 52.768078
50.400002 46.376434 53.200001
50.400002 46.400002 58.064663
50.400002 46.062347 58.400002
50.400002 46.060493 58.799999
50.375908 46.799999 50.400002
50.400002 46.799999 50.375957
50.400002 46.772705 51.200001
50.400002 46.799999 51.238605
50.027622 46.799999 52.000000
50.400002 46.799999 52.369396
50.400002 46.769650 52.400002
50.400002 46.799999 57.258698
50.400002 46.465130 57.600002
50.400002 46.464569 58.000000
50.400002 46.824013 50.400002
50.400002 47.200001 50.775936
50.400002 47.174099 51.600002
50.400002 47.170696 52.000000
50.334789 47.200001 56.799999
50.400002 47.200001 56.864941
50.400002 46.859169 57.200001
50.375935 47.600002 50.799999
50.400002 47.600002 50.775887
50.400002 47.600002 56.061562
50.400002 47.264492 56.400002
50.400002 47.265461 56.799999
50.400002 47.624084 50.799999
50.400002 48.000000 51.169575
50.335255 48.000000 55.600002
50.400002 48.000000 55.664650
50.400002 47.662231 56.000000
50.363102 48.400002 51.200001
50.400002 48.400002 51.163113
50.075569 48.400002 52.000000
50.400002 48.400002 51.849483
50.400002 48.097961 52.000000
50.400002 48.381729 52.400002
50.336140 48.400002 52.400002
50.400002 48.400002 52.417645
50.400002 48.400002 54.865032
50.400002 48.066181 55.200001
50.400002 48.064880 55.600002
50.400002 48.436901 51.200001
50.400002 48.799999 51.559917
50.249996 48.799999 52.000000
50.400002 48.799999 51.857086
50.400002 48.799999 52.301075
50.400002 48.559189 52.400002
50.400002 48.799999 54.057201
50.400002 48.462204 54.400002
50.400002 48.464840 54.799999
50.362812 49.200001 51.600002
50.400002 49.200001 51.562786
50.400002 48.950436 52.000000
50.339848 49.200001 53.600002
50.400002 49.200001 53.660175
50.400002 48.857357 54.000000
50.400002 49.237186 51.600002
50.400002 49.600002 51.969715
50.400002 49.600002 52.838470
50.400002 49.261532 53.200001
50.400002 49.260509 53.600002
50.375774 50.000000 52.000000
50.400002 50.000000 51.975838
50.400002 50.000000 52.837177
50.400002 50.024258 52.000000
50.400002 50.400002 52.375454
50.029140 50.400002 53.200001
50.400002 50.400002 52.829273
50.376041 50.799999 52.400002
50.400002 50.799999 52.376034
50.400002 50.767906 53.200001
50.400002 50.799999 53.230263
50.400002 50.823997 52.400002
50.400002 51.200001 52.775513
50.028942 51.200001 53.600002
50.400002 51.200001 53.230556
50.375435 51.600002 52.799999
50.400002 51.600002 52.775421
50.400002 51.569679 53.600002
50.400002 51.600002 53.630398
50.400002 51.624550 52.799999
50.400002 52.000000 53.176422
50.027561 52.000000 54.000000
50.400002 52.000000 53.630310
50.375999 52.400002 53.200001
50.400002 52.400002 53.176067
50.400002 52.374458 54.000000
50.400002 52.400002 54.025677
50.400002 52.423981 53.200001
50.400002 52.799999 53.575794
50.027851 52.799999 54.400002
50.400002 52.799999 54.025356
50.375607 53.200001 53.600002
50.400002 53.200001 53.575500
50.400002 53.175240 54.400002
50.400002 53.200001 54.424744
50.400002 53.224476 53.600002
50.400002 53.600002 53.975758
50.027027 53.600002 54.799999
50.400002 53.600002 54.425568
50.375713 54.000000 54.000000
50.400002 54.000000 53.975666
50.400002 53.969818 54.799999
50.400002 54.000000 54.830181
50.400002 54.024281 54.000000
50.400002 54.400002 54.375996
50.400002 54.400002 54.767323
50.400002 54.258675 54.799999
50.384838 54.799999 54.400002
50.400002 54.799999 54.384827
50.400002 54.799999 54.553425
50.400002 54.814758 54.400002
50.697941 34.400002 71.200005
50.799999 34.271053 71.200005
50.799999 34.400002 71.071663
50.698154 34.400002 71.599998
50.799999 34.298977 71.599998
50.799999 34.400002 71.701225
50.799999 34.626339 70.400002
50.799999 34.799999 70.213631
50.799999 34.625759 70.800003
50.692684 34.799999 71.200005
50.691437 34.799999 71.599998
50.799999 34.693901 72.000000
50.693058 34.799999 72.000000
50.664009 34.799999 72.400002
50.799999 34.697876 72.400002
50.799999 34.799999 72.541641
50.693142 35.200001 69.599998
50.799999 35.200001 69.708199
50.799999 35.014229 70.000000
50.642452 35.200001 72.000000
50.645657 35.200001 72.400002
50.799999 34.975948 72.800003
50.498405 35.200001 72.800003
50.799999 35.200001 73.108749
50.719212 35.600002 69.599998
50.799999 35.564434 70.000000
50.775139 35.600002 70.000000
50.799999 35.575172 70.400002
50.775021 35.600002 70.400002
50.799999 35.600002 70.424919
50.489208 35.600002 72.400002
50.462090 35.600002 72.800003
50.799999 35.323662 73.200005
50.455494 35.600002 73.200005
50.799999 35.600002 73.385002
50.799999 35.687084 70.000000
50.799999 36.000000 69.932091
50.799999 35.687649 70.400002
50.548004 36.000000 70.800003
50.588371 36.000000 71.200005
50.611141 36.000000 72.800003
50.799999 36.000000 72.989136
50.799999 35.784920 73.200005
50.682156 36.400002 69.200005
50.673351 36.400002 69.599998
50.799999 36.400002 69.631569
50.799999 36.400002 72.253433
50.799999 36.252602 72.400002
50.799999 36.224773 72.800003
50.569565 36.799999 68.800003
50.799999 36.766167 68.800003
50.799999 36.799999 68.773827
50.799999 36.593266 69.200005
50.799999 36.431664 69.599998
50.517387 36.799999 71.599998
50.645206 36.799999 72.000000
50.799999 36.799999 72.071831
50.799999 37.170422 68.000000
50.799999 37.200001 67.970451
50.799999 37.170197 68.400002
50.730625 37.200001 71.599998
50.799999 37.200001 71.902222
50.799999 37.104874 72.000000
50.428463 37.600002 67.200005
50.799999 37.600002 67.572319
50.799999 37.571980 67.599998
50.429424 37.600002 71.200005
50.429676 37.600002 71.599998
50.799999 37.600002 71.842896
50.799999 37.973335 66.800003
50.799999 38.000000 66.773384
50.799999 37.973522 67.200005
50.560303 38.000000 71.200005
50.799999 38.000000 71.587898
50.799999 37.987789 71.599998
50.799999 38.371967 66.000000
50.799999 38.400002 65.972000
50.799999 38.372002 66.400002
50.477074 38.400002 70.800003
50.744305 38.400002 71.200005
50.799999 38.400002 71.255730
50.427910 38.799999 65.200005
50.799999 38.799999 65.571526
50.799999 38.771439 65.599998
50.799999 38.799999 70.462448
50.799999 38.460781 70.800003
50.799999 38.462955 71.200005
50.799999 39.170559 64.800003
50.799999 39.200001 64.770699
50.799999 39.170441 65.200005
50.740814 39.200001 70.000000
50.799999 39.200001 70.059189
50.799999 38.862804 70.400002
50.799999 39.571682 64.000000
50.799999 39.600002 63.971680
50.799999 39.572529 64.400002
50.799999 39.600002 69.259697
50.799999 39.258881 69.599998
50.799999 39.258709 70.000000
50.429802 40.000000 63.200001
50.799999 40.000000 63.572033
50.799999 39.972042 63.600002
50.799999 40.000000 68.461525
50.799999 39.660412 68.800003
50.799999 39.659771 69.200005
